427,427,427,426,426,426,425,424,424,424,423,423,423,423,423,422,422,422,422,422,422,422,422,422,422,422,422,423,423,423,423,424,424,424,424,424,425,425,426,426,427,427,427,428,428,429,429,429,430,430,430,430,430,430,432,432,431,431,431,431,430,429,429,429,428,428,428,427,427,427,427,427,427,428,428,428,428,429,430,430,430,431,432,432,433,433,434,434,434,434,434,434,434,433,432,432,431,429,429,427,426,426,424,422,422,420,420,419,418,418,417,416,416,415,415,415,415,415,415,415,415,415,416,416,416,416,416,416,416,416,416,415,415,415,414,414,413,413,413,412,412,412,412,412,411,411,411,411,411,411,410,410,409,409,0,407,407,407,406,406,406,406,406,405,405,405,405,405,404,404,404,404,403,403,403,402,402,402,401,401,401,400,400,399,399,398,398,397,396,396,395,395,395,394,394,394,394,394,394,394,394,394,394,394,394,394,393,393,393,393,392,392,392,392,392,391,391,391,391,390,390,390,390,389,389,389,388,388,388,388,388,388,388,388,388,388,388,388,387,387,387,387,387,387,387,387,387,387,387,387,387,387,388,388,388,388,388,388,388,388,389,389,389,389,389,389,389,390,390,390,390,390,390,390,390,389,389,389,389,388,388,388,387,387,387,387,387,387,387,387,388,388,388,388,389,389,389,390,390,390,390,391,391,391,392,392,392,392,392,392,393,393,393,393,393,394,394,394,395,395,395,395,396,396,396,397,397,397,397,397,397,397,397,397,397,397,397,397,397,397,396,396,396,396,396,396,395,395,395,395,394,394,394,394,394,394,394,393,393,393,393,393,393,393,395,397,397,402,402,403,405,405,405,406,406,406,405,405,405,405,405,405,405,405,405,405,404,404,404,404,404,404,405,405,405,405,406,406,406,407,408,410,410,411,413,414,415,415,415,415,415,415,415,415,414,414,414,414,413,413,413,413,413,413,413,414,414,414,414,414,414,415,415,415,415,416,416,416,416,417,417,417,417,418,418,418,418,418,418,418,418,418,418,418,418,418,418,418,418,418,418,417,417,417,417,417,417,417,416,416,416,416,415,415,415,415,415,414,414,414,414,414,414,413,413,413,413,413,412,412,412,412,412,411,411,411,411,411,411,411,411,411,411,411,412,412,412,412,412,412,412,411,411,411,410,410,409,408,408,408,407,407,407,406,406,406,406,405,405,405,406,406,406,406,406,406,406,406,406,406,407,407,407,407,407,408,408,408,408,408,408,409,409,409,410,410,410,410,411,411,411,411,411,411,411,411,411,411,411,411,411,410,410,410,410,410,410,409,409,409,409,409,409,409,409,409,409,410,410,411,411,411,412,413,413,414,415,415,416,416,417,417,418,418,418,418,418,418,418,417,417,417,417,418,418,418,419,420,420,421,423,424,425,425,427,427,427,428,428,429,429,429,429,429,428,428,428,428,428,428,427,427,427,427,427,427,427,427,428,428,428,428,428,428,429,429,429,429,429,429,429,429,429,429,429,429,429,429,429,429,429,429,430,430,430,430,430,430,430,430,430,430,430,430,430,429,429,429,429,430,430,430,430,430,430,430,430,430,430,430,431,431,431,431,431,431,431,432,432,432,433,433,433,434,434,434,435,435,435,436,436,436,436,436,436,436,436,436,436,435,435,435,435,434,434,434,434,434,433,433,433,433,433,432,432,432,431,431,431,430,430,430,429
427,427,427,426,426,426,425,424,424,424,423,423,423,423,423,422,422,422,422,422,422,422,422,422,422,422,422,423,423,423,423,424,424,424,424,424,425,425,426,426,427,427,427,428,428,429,429,429,430,430,430,430,430,430,431,431,431,430,430,430,429,429,429,428,428,428,428,427,427,427,427,427,427,427,427,428,428,428,428,428,429,430,431,431,431,432,432,433,433,433,433,432,432,432,431,431,430,428,428,427,425,425,424,422,422,420,420,419,418,418,417,416,416,415,415,415,415,415,415,415,415,416,416,416,416,416,416,416,416,416,416,415,415,415,414,414,413,413,413,412,411,411,411,411,410,410,410,410,410,409,409,409,408,407,407,407,406,406,406,406,406,406,406,406,406,406,405,405,405,405,405,404,404,404,403,402,402,402,401,401,401,400,399,399,399,398,398,397,396,396,395,395,395,394,394,394,394,394,394,394,394,394,394,394,394,394,393,393,393,393,392,392,392,392,392,391,391,391,391,390,390,390,390,389,389,389,388,388,388,388,388,388,388,388,388,388,388,388,387,387,387,387,387,387,387,387,387,387,387,387,387,387,388,388,388,388,388,388,388,388,389,389,389,389,389,389,390,390,390,390,390,391,390,390,390,390,389,389,389,388,388,388,387,387,387,387,387,387,387,387,388,388,388,388,389,389,389,390,390,390,390,391,391,391,392,392,392,392,392,392,393,393,393,393,393,394,394,394,395,395,395,395,396,396,396,397,397,397,397,397,397,397,397,397,397,397,397,397,396,396,396,396,396,396,395,395,395,395,395,394,394,394,394,394,394,394,394,394,394,393,393,393,393,394,396,398,0,402,402,404,405,405,406,406,406,406,406,406,406,406,406,406,405,405,405,405,405,405,405,405,405,405,405,406,406,406,406,406,406,407,408,409,409,411,412,413,413,414,414,414,414,414,414,414,414,414,413,413,413,413,413,413,413,413,413,413,413,414,414,414,414,414,415,415,415,416,416,416,416,417,417,417,417,417,417,418,418,418,418,418,418,418,418,418,418,418,418,418,417,417,417,417,417,417,417,417,417,417,416,416,416,416,415,415,415,415,415,414,414,414,414,414,414,413,413,413,413,412,412,412,412,411,411,411,410,410,410,410,410,410,410,410,410,410,411,411,411,411,411,411,411,411,411,410,409,409,409,408,408,407,407,407,406,406,406,406,406,405,405,405,405,406,406,406,406,406,406,406,406,406,407,407,407,407,408,408,408,408,409,409,409,409,410,410,410,410,410,411,411,411,411,411,411,411,411,411,411,411,411,411,411,411,411,410,410,410,410,409,409,409,409,409,409,409,409,409,409,409,410,410,410,411,412,413,413,414,415,415,416,417,418,418,418,419,419,419,419,419,418,418,418,418,418,418,418,418,419,420,420,420,422,423,423,424,425,426,426,427,428,428,428,428,428,428,428,428,428,428,428,428,427,427,427,427,427,427,427,427,428,428,428,428,428,428,429,429,429,429,429,429,429,429,429,429,429,429,429,429,429,429,429,429,429,429,429,429,430,429,429,429,429,429,429,429,429,429,429,429,429,429,429,429,429,429,429,430,430,430,430,430,430,430,430,430,430,431,431,431,431,432,432,432,433,433,434,434,435,435,435,436,436,436,436,436,436,436,436,436,436,436,435,435,435,435,435,434,434,434,433,433,433,433,433,432,432,432,431,431,430,430,430,429,429
427,427,427,426,426,426,425,425,425,424,423,423,423,423,423,422,422,422,422,422,422,422,422,422,422,422,422,422,422,422,422,423,423,423,423,423,424,424,425,425,426,426,426,427,427,428,428,428,429,429,429,429,430,430,430,430,430,430,430,429,429,429,428,428,427,427,427,427,427,427,426,426,426,426,427,427,427,427,427,427,428,429,429,429,430,431,431,431,433,433,433,432,432,432,431,431,430,428,428,427,425,425,424,422,422,420,420,419,418,418,417,416,416,415,415,415,415,415,415,415,415,416,416,416,416,416,416,416,416,416,416,415,415,415,414,414,413,412,412,411,411,411,410,410,409,409,409,409,409,408,408,408,407,407,407,406,406,406,406,406,406,406,406,406,406,406,406,406,406,405,405,405,404,404,404,403,403,402,402,401,401,400,399,399,399,398,398,397,396,396,395,395,395,394,394,394,394,394,394,394,394,394,394,394,393,393,393,393,393,393,392,392,392,392,392,391,391,391,391,390,390,390,390,389,389,389,389,389,388,388,388,388,388,388,388,388,388,388,388,387,387,387,387,387,387,387,387,387,387,387,388,388,388,388,388,388,388,389,389,389,389,389,389,389,389,389,390,390,390,390,390,391,391,390,390,390,390,390,389,389,389,388,387,387,387,387,387,387,387,387,388,388,388,388,389,389,389,390,390,390,390,391,391,391,392,392,392,392,392,392,393,393,393,393,393,394,394,394,395,395,395,395,396,396,396,397,397,397,397,397,397,397,397,397,397,397,397,397,396,396,396,396,396,395,395,395,395,395,395,394,394,394,394,394,394,394,394,394,394,394,394,394,394,394,396,0,0,0,405,405,406,406,406,406,406,406,406,406,406,406,406,406,405,405,405,405,405,405,405,405,405,405,405,406,406,406,406,406,406,407,408,409,409,410,412,413,413,413,414,414,414,414,414,414,413,413,413,412,412,412,412,412,412,412,413,413,413,413,414,414,414,414,415,415,415,416,416,416,416,417,417,417,417,417,417,418,418,418,418,418,418,418,418,418,418,418,418,418,417,417,417,417,417,417,417,416,416,416,416,416,416,415,415,415,415,414,414,414,414,414,414,413,413,413,413,413,412,412,412,412,411,411,411,410,410,410,409,409,409,409,409,409,410,410,410,410,410,410,410,410,410,410,410,409,409,409,408,407,407,407,407,407,406,406,406,406,406,405,405,405,405,406,406,406,406,406,406,406,407,407,407,407,407,408,408,408,408,408,409,409,409,409,410,410,410,410,410,411,411,411,411,411,411,411,411,411,411,411,411,411,411,411,411,410,410,410,410,409,409,409,409,409,409,409,409,409,409,409,410,410,410,411,411,411,413,414,415,415,416,418,419,420,420,420,420,420,420,420,419,419,419,418,418,418,418,418,419,420,420,420,422,423,423,424,425,426,426,427,428,428,428,428,428,428,428,428,428,428,427,427,427,427,427,427,427,427,427,427,427,427,427,427,428,428,428,428,428,428,428,428,428,428,428,428,428,428,428,428,429,429,429,429,429,429,429,429,429,429,429,429,429,429,429,429,429,429,429,428,428,429,429,429,429,429,429,429,429,429,430,430,430,430,430,430,430,431,431,431,431,432,432,432,433,433,434,434,435,435,435,436,436,436,436,436,436,436,436,436,436,436,435,435,435,435,435,434,434,434,433,433,433,433,432,432,432,431,431,431,430,430,430,429,429
427,427,427,426,426,426,425,425,425,424,423,423,423,423,423,422,422,422,422,422,422,422,421,421,421,421,421,421,421,421,422,422,422,422,423,423,423,424,424,424,425,425,425,426,426,427,427,427,428,428,428,428,428,428,428,429,429,428,428,428,428,429,428,428,427,427,427,427,427,427,426,426,426,426,427,427,427,427,427,427,428,429,429,429,430,431,431,431,432,432,432,431,431,431,430,430,429,428,428,426,425,425,423,422,422,420,420,418,418,418,417,416,416,416,415,415,415,415,415,415,415,415,416,416,416,416,416,416,416,416,416,415,415,415,414,414,413,412,412,411,410,410,409,409,409,408,408,408,409,408,408,408,407,407,0,406,406,406,406,406,406,406,406,406,406,406,406,406,406,406,406,405,404,404,404,403,403,402,402,401,401,400,399,399,398,398,398,397,396,396,395,395,395,394,394,394,394,394,394,394,394,394,394,394,393,393,393,393,393,392,392,392,392,392,392,391,391,391,391,390,390,390,390,389,389,389,389,389,388,388,388,388,388,388,388,388,388,388,388,387,387,387,387,387,387,387,387,387,387,388,388,388,388,388,388,388,389,389,389,389,389,389,389,389,389,389,390,390,390,390,390,391,391,390,390,390,390,390,389,389,389,388,387,387,387,387,387,387,387,387,388,388,388,388,389,389,389,390,390,390,391,391,391,391,392,392,392,392,393,393,393,393,393,393,393,394,394,394,395,395,395,395,396,396,396,397,397,397,397,397,397,397,397,397,397,397,397,397,396,396,396,396,396,395,395,395,395,395,395,394,394,394,394,394,394,394,394,394,394,394,394,394,394,394,396,0,0,0,405,405,406,406,406,406,406,406,406,406,406,406,406,406,406,406,406,406,406,406,406,406,406,406,406,406,406,406,406,407,407,407,408,409,409,410,411,412,412,413,414,414,414,414,414,414,413,413,413,412,412,412,412,412,412,412,413,413,413,413,414,414,414,414,415,415,415,416,416,416,416,417,417,417,417,417,417,417,418,418,418,418,418,417,417,418,417,417,417,417,417,417,417,417,416,416,416,416,416,416,415,415,415,415,415,414,414,414,414,414,414,414,413,413,413,413,412,412,412,411,411,411,410,410,410,409,409,409,409,409,409,409,409,409,410,410,410,410,410,410,410,410,410,410,410,409,409,409,408,407,407,407,407,407,406,406,406,406,405,405,405,405,405,406,406,406,406,406,406,406,407,407,407,407,407,408,408,408,408,409,409,409,409,410,410,410,410,410,410,411,411,411,411,411,411,411,412,412,412,411,411,411,411,411,411,410,410,410,410,409,409,409,409,409,409,409,409,409,409,409,410,410,410,411,411,411,413,414,416,417,417,419,420,421,421,421,421,421,421,421,419,419,419,418,418,418,418,418,419,419,419,420,420,421,421,423,424,425,425,426,426,427,427,427,428,428,428,427,427,427,427,427,427,427,427,426,426,426,426,426,426,427,427,427,427,427,427,427,427,427,427,427,427,428,428,428,428,428,428,428,428,428,428,429,429,429,429,429,429,429,429,429,429,429,429,429,429,429,429,428,428,429,429,429,429,429,429,429,429,429,429,429,430,430,430,430,430,430,430,430,431,431,431,431,432,433,433,433,434,435,435,435,436,436,436,436,436,436,436,436,436,436,436,436,435,435,435,434,434,434,433,433,433,433,432,432,432,431,431,431,430,430,430,430,429
427,427,427,427,426,426,425,425,425,424,424,424,423,423,423,422,422,422,422,422,422,422,421,421,421,421,421,421,421,421,421,421,421,422,422,422,423,424,424,424,425,425,425,426,426,427,427,427,428,428,428,428,428,428,428,429,429,428,428,428,428,428,427,427,427,427,426,426,426,426,426,426,426,426,426,426,426,426,427,427,427,428,428,428,429,429,429,430,430,430,430,430,430,429,429,429,428,427,427,425,425,0,423,421,421,420,419,418,418,418,417,416,416,416,415,415,415,415,415,415,415,415,416,416,416,416,416,416,416,416,416,415,415,415,414,414,413,412,412,411,410,410,409,409,409,408,408,408,408,407,407,407,407,406,406,406,406,406,406,406,406,406,406,406,406,406,406,406,406,406,406,405,405,404,404,403,403,403,402,401,401,400,399,399,398,398,398,397,396,396,395,395,395,394,394,394,394,394,394,394,394,394,394,393,393,393,393,393,393,392,392,392,392,392,392,391,391,391,391,390,390,390,390,389,389,389,389,389,388,388,388,388,388,388,388,388,388,388,388,387,387,387,387,387,387,387,387,387,387,388,388,388,388,388,388,388,389,389,389,389,389,389,389,389,390,390,390,390,390,390,391,391,391,391,391,390,390,390,389,389,389,388,388,388,387,387,387,387,387,387,388,388,388,389,389,389,390,390,390,391,391,391,391,392,392,392,392,393,393,393,393,393,393,393,393,394,394,394,395,395,395,395,396,396,396,397,397,397,397,397,397,397,397,397,397,397,397,396,396,396,396,395,395,395,395,395,395,394,394,394,394,394,394,394,394,394,394,394,394,394,394,394,395,395,0,0,0,0,406,406,406,406,406,406,406,406,406,406,406,406,406,406,406,406,406,406,407,407,407,407,407,407,407,407,407,407,407,407,408,408,408,409,409,410,411,412,412,413,414,414,413,413,413,413,413,413,412,412,412,412,412,412,412,412,412,413,413,413,414,414,414,414,415,415,415,416,416,416,416,417,417,417,417,417,417,417,417,417,417,417,417,417,417,417,417,417,417,417,417,417,417,416,416,416,416,415,415,415,415,415,415,415,415,414,414,414,414,414,414,414,413,413,413,413,412,412,412,411,411,411,410,410,410,409,409,409,409,408,408,408,408,408,409,409,409,409,409,409,409,409,409,409,409,409,408,408,408,407,407,407,406,406,406,406,406,406,405,405,405,405,405,406,406,406,406,406,406,406,407,407,407,408,408,408,408,409,409,409,409,410,410,410,410,410,410,411,411,411,411,411,411,411,411,411,412,412,412,411,411,411,411,411,411,410,410,410,410,409,409,409,409,409,409,409,409,409,409,409,409,410,410,410,411,411,412,414,416,417,417,419,420,421,421,421,421,421,421,421,420,419,419,419,418,418,418,418,419,419,419,419,420,420,420,421,422,423,423,424,425,426,426,426,427,427,427,427,427,427,427,427,427,426,426,426,426,426,426,426,426,427,427,427,427,427,427,427,427,427,427,427,427,428,428,428,428,428,428,428,428,428,428,429,429,429,429,429,429,429,429,429,428,428,428,428,428,428,428,428,428,428,428,428,428,428,428,429,429,429,429,429,429,429,429,429,429,430,430,430,430,430,430,430,431,432,432,432,433,434,434,434,435,436,436,436,436,436,436,436,436,436,436,436,435,435,435,435,434,434,434,433,433,433,432,432,432,431,431,431,430,430,430,430,429
427,427,427,426,426,426,426,425,425,425,424,424,423,423,423,422,422,422,422,422,422,422,421,421,421,421,421,421,421,421,421,421,421,422,422,422,422,423,423,424,424,425,425,425,425,425,426,426,426,426,427,427,427,427,427,427,427,427,427,427,427,427,426,426,426,426,425,425,425,425,425,425,425,425,425,425,425,425,426,426,426,427,427,427,427,428,428,428,429,429,429,429,429,428,428,428,428,427,427,425,425,0,423,421,421,420,419,419,418,418,417,416,416,416,415,415,415,415,415,415,415,415,416,416,416,416,416,416,416,416,416,415,415,414,414,414,413,412,412,411,410,410,409,408,408,408,407,407,407,407,406,406,406,406,406,406,406,406,406,406,406,406,406,407,407,407,407,407,407,406,406,406,405,404,404,403,403,403,402,401,401,400,399,399,398,398,398,397,396,396,395,395,395,395,394,394,394,394,394,394,394,394,394,393,393,393,393,393,393,392,392,392,392,392,392,391,391,391,391,390,390,390,390,389,389,389,389,389,388,388,388,388,388,388,388,388,388,388,388,388,388,388,387,387,387,387,388,388,388,388,388,388,388,388,389,389,389,389,389,389,389,389,389,389,390,390,390,390,390,391,391,391,391,391,391,391,390,390,390,389,389,388,388,388,387,387,387,387,387,388,388,388,388,389,389,389,390,390,390,391,391,391,391,392,392,392,392,393,393,393,393,393,393,393,393,394,394,394,395,395,395,395,396,396,396,396,396,397,397,397,397,397,397,397,396,396,396,396,396,396,396,395,395,395,395,395,394,394,394,394,394,394,394,394,394,394,394,394,394,394,394,394,395,395,0,0,0,0,0,407,407,407,407,406,406,406,406,406,406,406,406,406,406,406,406,406,407,407,407,407,407,407,407,407,407,407,407,407,408,408,408,409,409,410,411,412,412,413,413,413,413,413,413,413,412,412,412,412,411,411,411,412,412,412,412,412,412,413,413,414,414,414,415,415,415,416,416,416,416,416,417,417,417,417,417,417,417,417,417,417,417,417,417,417,417,417,417,417,417,417,417,416,416,416,416,415,415,415,415,415,415,414,414,414,414,414,414,414,413,413,413,413,413,413,412,412,412,411,411,411,410,409,409,409,408,408,408,408,408,408,408,408,408,408,408,408,408,408,408,408,408,408,408,408,408,408,407,407,407,406,406,406,406,406,406,406,405,405,405,405,405,406,406,406,406,406,406,407,407,407,408,408,408,408,409,409,409,410,410,410,410,410,410,410,411,411,411,411,411,411,411,411,411,411,411,411,411,411,411,411,411,411,411,410,410,410,410,409,409,409,409,408,408,408,409,409,409,409,409,409,409,410,410,410,412,413,415,418,418,420,421,422,422,422,422,422,422,421,421,420,419,419,419,418,418,418,418,418,418,419,420,420,420,421,422,423,423,424,425,426,426,426,427,427,427,427,427,427,427,427,427,426,426,426,426,426,426,426,426,426,426,426,426,426,426,427,427,427,427,427,427,427,427,427,428,428,428,428,428,428,428,428,429,429,429,429,429,428,428,428,428,428,428,428,428,428,428,428,428,428,428,428,428,428,428,428,428,428,428,428,428,428,429,429,429,429,430,430,430,430,430,430,431,432,432,432,433,434,434,434,435,436,436,436,436,436,436,436,436,436,436,436,435,435,435,435,434,434,434,433,433,433,432,432,432,431,431,431,430,430,430,430,429
427,427,427,426,426,426,426,425,425,425,424,424,423,423,423,422,422,422,422,422,422,421,421,421,421,420,420,420,420,420,421,421,421,421,421,421,422,422,422,423,423,423,423,423,424,423,423,424,424,423,423,424,423,423,423,423,424,424,425,425,425,425,425,425,425,425,425,425,425,425,425,425,425,425,425,425,425,425,426,426,426,427,427,427,427,428,428,428,429,429,429,429,429,428,428,428,427,426,426,425,425,0,423,421,421,420,419,419,418,417,417,416,416,416,415,415,415,415,415,415,415,415,415,416,416,416,416,416,416,416,415,415,415,414,413,413,412,411,411,410,409,409,408,408,408,407,407,407,406,406,406,406,406,406,406,406,406,406,406,406,406,407,407,407,407,407,407,407,407,407,406,406,405,405,405,404,403,403,402,401,401,400,399,399,398,398,398,397,396,396,395,395,395,395,394,394,394,394,394,394,394,394,394,393,393,393,393,393,393,392,392,392,392,391,391,391,391,391,391,390,390,390,390,389,389,389,389,389,388,388,388,388,388,388,388,388,388,388,388,388,388,388,388,388,388,388,388,388,388,388,388,388,388,388,389,389,389,389,389,389,389,389,389,389,390,390,390,390,390,391,391,391,391,391,391,391,390,390,390,389,389,388,388,388,387,387,387,387,387,388,388,388,388,389,389,389,390,390,391,391,391,392,392,392,392,392,392,392,393,393,393,393,393,393,393,394,394,394,395,395,395,395,396,396,396,396,396,396,397,397,397,397,397,397,396,396,396,396,396,396,396,395,395,395,395,395,394,394,394,394,394,394,394,394,394,394,394,394,394,394,394,394,395,395,0,0,405,405,405,407,407,407,407,406,406,406,406,406,406,406,406,406,406,407,407,407,407,408,408,408,408,408,408,408,408,408,408,408,408,408,409,410,410,410,411,412,412,412,413,413,412,412,412,412,412,412,412,412,411,411,411,412,412,412,412,412,412,413,413,414,414,414,415,415,415,416,416,416,416,416,417,417,417,417,417,417,417,417,417,417,417,417,417,417,417,417,417,417,417,416,416,416,416,416,415,415,415,415,414,414,414,414,414,414,414,414,414,413,413,413,413,413,413,412,412,412,411,411,410,410,410,409,409,408,408,408,407,407,407,407,407,407,407,407,407,408,408,408,408,408,408,408,408,408,408,408,407,407,407,406,406,406,406,406,406,406,405,405,405,405,405,406,406,406,406,406,406,407,407,407,408,408,408,408,409,409,409,410,410,410,410,410,410,410,411,411,411,411,411,411,411,411,411,411,411,411,411,411,411,411,411,410,410,410,410,410,409,409,409,409,409,408,408,408,409,409,409,409,409,409,409,409,410,410,412,413,415,418,418,420,423,423,423,423,423,423,422,422,422,421,420,420,419,419,419,418,418,418,418,419,419,419,419,420,420,420,421,422,423,423,424,424,425,425,426,426,426,426,426,426,426,426,426,425,425,425,425,425,425,425,425,425,425,425,426,426,426,426,426,427,427,427,427,427,427,428,428,428,428,428,428,428,428,428,428,428,428,428,428,428,428,428,428,428,428,428,428,428,428,428,428,428,428,428,428,428,428,428,428,428,428,428,429,429,429,429,429,429,430,430,430,430,430,431,431,432,433,433,433,434,435,435,435,436,436,436,436,436,436,436,436,436,436,435,435,435,434,434,434,433,433,433,432,432,432,431,431,431,430,430,430,430,429
426,427,427,426,426,426,426,425,425,425,424,424,424,423,423,423,422,422,422,422,421,421,421,420,420,420,420,420,420,420,420,420,420,421,421,421,421,421,421,422,422,422,421,421,424,423,423,424,424,423,423,424,423,423,423,423,424,424,425,425,425,425,425,425,425,425,425,425,425,425,425,425,425,425,425,425,425,425,425,425,425,425,425,426,426,427,427,427,427,427,428,428,428,427,427,427,426,425,425,425,424,424,423,421,421,420,419,419,418,417,417,417,416,416,416,415,415,415,416,416,416,415,415,416,416,416,416,416,415,415,415,415,415,414,413,413,412,411,411,410,409,409,408,408,408,407,407,407,406,406,406,406,406,406,406,406,406,406,406,406,406,407,407,407,407,407,407,407,407,407,406,406,405,405,405,404,403,403,402,401,401,400,399,399,398,398,398,397,396,396,395,395,395,395,394,394,394,394,394,394,394,394,393,393,393,393,393,392,392,392,392,392,392,391,391,391,391,391,391,390,390,390,390,389,389,389,389,389,388,388,388,388,388,388,388,388,388,388,388,388,388,388,388,388,388,388,388,388,388,388,388,388,388,388,389,389,389,389,389,389,389,389,389,389,390,390,390,390,391,391,391,391,391,391,391,391,390,390,390,389,389,389,388,388,388,388,388,388,388,388,388,388,389,389,390,390,390,391,391,391,392,392,392,392,392,392,392,392,393,393,393,393,393,393,393,394,394,394,395,395,395,395,396,396,396,396,396,396,397,397,397,397,397,396,396,396,396,396,396,396,395,395,395,395,394,394,394,394,394,394,394,394,394,394,394,394,394,394,394,394,394,0,0,0,0,0,405,405,405,407,407,407,407,406,406,406,406,406,406,406,406,406,406,407,407,407,408,408,408,408,408,409,409,409,408,408,408,409,409,409,409,410,411,411,411,412,412,412,413,413,412,412,412,412,412,412,412,411,411,411,411,411,412,412,412,412,412,413,413,414,414,414,415,415,415,415,416,416,416,416,417,417,417,417,417,417,417,417,417,417,417,417,417,417,417,417,417,417,416,416,416,416,415,415,415,415,415,414,414,414,414,414,414,414,414,413,413,413,413,413,413,413,413,412,412,412,411,411,410,410,410,409,409,408,408,408,407,407,407,407,407,407,407,407,407,407,407,408,408,408,408,408,407,407,407,407,407,406,406,406,406,406,406,406,406,406,405,405,405,405,405,406,406,406,406,406,406,407,407,407,408,408,409,409,409,410,410,410,410,410,410,411,411,411,411,411,411,411,411,411,411,411,411,411,411,411,411,411,411,411,411,410,410,410,410,410,409,409,409,409,409,409,409,409,409,409,409,409,409,409,409,409,410,410,412,413,415,418,418,420,423,423,423,423,423,423,422,422,422,421,420,420,419,419,419,418,418,418,418,418,418,418,418,418,419,419,420,421,421,421,422,423,424,424,424,425,425,425,425,425,425,425,425,425,425,425,425,425,425,425,425,425,425,425,426,426,426,426,426,427,427,427,427,427,427,428,428,428,428,428,428,428,428,428,428,428,428,428,428,428,428,428,428,428,428,427,427,427,427,427,427,427,427,427,427,428,428,428,428,428,428,428,428,428,428,428,428,428,429,429,429,429,430,430,430,431,432,432,432,433,434,434,434,435,436,436,436,436,437,436,436,436,436,436,436,436,435,435,434,433,433,433,432,432,432,431,431,431,430,430,430,430,429
426,427,427,427,426,426,426,426,426,425,425,425,424,423,423,423,422,422,422,422,421,421,421,420,420,420,420,420,420,420,420,420,420,421,421,421,421,421,421,422,422,422,421,421,421,421,421,421,420,420,423,420,420,420,420,420,420,421,421,422,422,423,423,424,424,424,424,424,424,424,424,424,424,424,424,424,424,424,424,424,424,425,425,425,425,425,425,425,426,426,426,426,426,426,426,426,425,425,425,424,423,423,422,421,421,420,419,419,418,418,418,417,416,416,416,416,416,416,416,416,416,416,416,416,416,416,416,416,415,415,415,415,415,414,413,413,412,411,411,410,409,409,408,407,407,407,406,406,406,406,406,406,406,406,406,406,406,406,406,406,407,407,407,407,407,407,408,408,408,407,407,407,406,405,405,404,403,403,403,401,401,400,399,399,398,398,398,397,396,396,396,395,395,395,395,395,394,394,394,394,394,394,393,393,393,393,393,392,392,392,392,392,392,391,391,391,391,390,390,390,390,390,390,389,389,389,389,389,388,388,388,388,388,388,388,388,388,388,388,388,388,388,388,388,388,388,388,388,388,388,388,388,388,389,389,389,389,389,389,389,389,389,389,390,390,390,390,390,391,391,391,391,391,391,391,391,391,390,390,390,389,389,389,388,388,388,388,388,388,389,389,389,389,390,390,390,391,391,392,392,392,392,392,392,392,392,392,392,392,392,393,393,393,393,393,394,394,394,395,395,395,395,396,396,396,396,396,396,396,396,396,396,396,396,396,396,396,396,395,395,395,395,395,394,394,394,394,394,394,394,394,394,394,394,394,394,394,394,394,394,394,394,395,395,0,0,0,407,407,407,407,407,407,406,406,406,406,406,406,406,406,406,406,407,407,407,408,408,409,409,409,409,409,409,408,408,408,409,409,409,409,410,411,411,411,412,412,412,412,412,412,412,412,412,411,411,411,411,411,411,411,411,411,411,412,412,413,413,413,414,414,414,414,415,415,415,416,416,416,416,417,417,417,417,417,417,417,417,417,417,417,417,417,417,417,417,417,417,416,416,416,416,415,415,415,415,415,414,414,414,414,414,414,414,414,413,413,413,413,413,413,412,412,412,412,412,411,410,410,410,409,409,409,408,407,407,407,407,407,407,407,407,407,407,407,407,407,407,407,407,407,407,407,407,407,407,407,406,406,406,406,406,406,406,406,406,405,405,405,405,406,406,406,406,406,407,407,407,408,408,408,409,409,409,410,410,410,410,411,411,411,411,411,411,411,411,411,411,411,411,411,411,411,411,411,411,411,411,410,410,410,410,410,410,410,410,409,409,409,409,408,408,408,408,408,408,408,408,408,409,409,409,0,0,0,0,0,420,420,420,423,423,423,424,424,424,423,423,423,422,420,420,420,419,419,418,418,418,418,417,417,417,417,417,418,418,418,421,421,421,422,423,424,424,424,425,425,425,425,425,425,425,425,425,425,425,425,425,425,425,425,425,425,425,425,426,426,426,426,426,426,427,427,427,427,427,428,428,428,428,428,428,428,428,428,428,428,428,428,428,428,428,428,428,427,427,427,427,427,427,427,427,427,427,427,427,427,427,427,427,427,427,427,428,428,428,428,428,428,428,428,428,429,429,429,431,432,432,432,433,434,434,434,435,436,436,436,436,437,437,437,437,437,436,436,436,435,435,435,433,433,433,432,432,432,431,431,431,430,430,430,430,429
426,427,427,427,426,426,426,426,426,425,425,425,424,424,424,423,422,422,422,422,421,421,421,420,420,420,420,420,420,420,420,420,420,420,420,420,421,421,421,421,421,420,420,419,419,418,418,418,417,417,417,417,416,416,416,417,417,418,418,419,420,420,421,422,422,422,423,423,423,423,423,423,423,423,423,423,423,423,424,424,424,425,425,425,425,425,425,425,426,426,426,426,426,426,426,426,425,425,425,424,423,423,422,421,421,420,419,419,418,418,418,417,416,416,416,416,416,416,416,416,416,416,416,416,416,415,415,415,415,415,415,414,414,414,413,413,412,411,411,410,409,409,408,407,407,406,406,406,406,405,405,405,405,406,406,406,406,406,406,406,407,407,407,408,408,408,408,408,408,408,407,407,406,405,405,404,403,403,403,402,402,400,400,400,399,398,398,397,396,396,396,395,395,395,395,395,394,394,394,394,394,393,393,393,393,393,392,392,392,392,392,392,391,391,391,391,391,390,390,390,390,390,389,389,389,389,389,389,388,388,388,388,388,388,388,388,388,388,388,388,388,388,388,388,388,388,388,388,388,388,388,388,388,389,389,389,389,389,389,389,389,389,389,390,390,390,390,390,391,391,391,391,391,391,391,391,391,390,390,390,389,389,389,388,388,388,388,388,388,389,389,389,389,390,390,390,391,391,392,392,392,392,392,392,392,392,392,392,392,392,393,393,393,393,393,394,394,394,395,395,395,395,396,396,396,396,396,396,396,396,396,396,396,396,396,396,396,395,395,395,395,395,395,394,394,394,394,394,394,394,394,394,394,394,394,394,394,394,394,394,394,394,395,395,0,0,405,405,405,407,407,407,407,406,406,406,406,406,406,406,406,406,406,407,407,407,408,408,409,409,409,409,409,409,409,409,409,409,409,409,410,410,411,411,411,412,412,412,412,412,411,411,411,411,411,411,411,411,411,411,411,411,411,411,412,412,413,413,413,414,414,414,414,415,415,415,416,416,416,416,417,417,417,417,417,417,417,417,417,417,417,417,417,417,417,417,417,416,416,416,416,416,415,415,415,415,415,414,414,414,414,414,414,414,413,413,413,413,413,413,412,412,412,412,411,411,411,410,409,409,409,408,408,408,407,407,407,406,406,406,406,406,406,406,406,406,406,407,407,407,407,407,407,407,407,407,407,406,406,406,406,406,406,406,406,406,406,406,406,406,406,406,406,406,406,407,407,407,408,408,408,409,409,409,410,410,410,410,411,411,411,411,411,411,411,411,411,411,411,411,411,411,411,411,411,410,410,410,410,410,410,410,410,410,409,409,409,409,409,409,408,408,408,408,408,408,408,408,408,408,408,408,0,0,0,0,0,0,0,0,424,424,424,424,424,424,424,423,423,422,421,421,420,419,419,418,418,418,418,417,417,417,417,417,418,418,418,419,421,421,421,421,421,422,423,424,424,424,424,424,424,424,424,424,424,424,424,424,424,424,424,425,425,425,425,425,425,425,426,426,426,426,427,427,427,427,427,427,428,428,428,428,428,428,428,428,428,428,428,428,428,427,427,427,427,427,427,427,427,427,427,427,427,427,427,427,427,427,427,427,427,427,427,428,428,428,428,428,428,428,428,428,429,429,429,430,430,431,431,432,433,433,433,434,435,435,436,436,437,437,437,437,437,436,436,436,435,435,435,434,433,433,433,432,432,431,431,431,430,430,430,430,429
426,427,427,427,426,426,426,426,426,425,425,425,424,424,424,423,423,422,422,422,421,421,420,420,420,420,419,419,419,419,419,419,420,420,420,420,420,420,419,419,419,418,417,417,417,418,418,418,417,417,414,414,416,416,416,417,417,418,418,419,420,420,421,422,422,422,423,423,423,423,423,423,423,423,423,423,423,423,424,424,424,424,424,424,424,424,424,424,425,425,425,425,425,425,425,424,424,424,424,423,422,422,422,421,421,420,419,419,419,418,418,417,417,417,416,416,416,416,416,416,416,416,416,416,416,415,415,415,415,415,415,414,414,414,413,413,412,411,411,410,409,409,408,407,407,406,406,406,406,405,405,405,405,406,406,406,406,406,407,407,407,408,408,408,408,408,408,408,408,408,407,407,406,405,405,404,403,403,403,402,402,400,400,400,399,398,398,397,396,396,396,395,395,395,395,395,394,394,394,394,394,393,393,393,393,393,392,392,392,392,392,392,391,391,391,391,390,390,390,390,390,390,389,389,389,389,389,389,388,388,388,388,388,388,388,388,388,389,388,388,388,388,388,388,388,388,388,388,388,388,388,388,388,388,389,389,389,389,389,389,389,389,389,390,390,390,390,390,391,391,391,391,391,391,391,391,391,390,390,390,389,389,389,389,389,389,389,389,389,389,389,390,390,390,391,391,391,392,392,392,392,392,392,392,392,392,392,392,393,393,393,393,393,393,393,394,394,394,395,395,395,395,396,396,396,396,396,396,396,396,396,396,396,396,396,396,396,395,395,395,395,395,395,394,394,394,394,394,394,394,394,394,394,394,394,394,394,394,394,394,394,394,395,395,0,0,404,404,404,407,407,407,407,406,406,406,405,405,405,405,405,406,406,406,407,407,407,408,409,409,409,409,409,409,409,409,409,410,410,410,410,411,411,411,411,412,412,412,412,412,411,411,411,411,411,411,411,411,411,411,411,411,411,411,412,412,413,413,413,414,414,414,414,415,415,415,416,416,416,416,417,417,417,417,417,417,417,417,417,417,417,417,417,417,417,417,417,416,416,416,416,416,415,415,415,415,415,414,414,414,414,414,413,413,413,413,413,413,412,412,412,412,412,411,411,411,410,410,409,409,409,408,408,408,407,407,407,406,406,406,406,406,406,406,406,406,406,407,407,407,407,407,407,407,407,407,407,406,406,406,406,406,406,406,406,406,406,406,406,406,406,406,406,406,406,407,407,407,408,408,408,409,409,409,410,410,411,411,411,411,411,411,411,411,411,411,411,411,410,410,410,410,410,410,410,410,410,410,410,410,410,410,410,409,409,409,409,409,409,409,408,408,408,408,408,408,408,408,408,408,408,408,0,0,0,0,0,0,0,0,423,423,424,424,424,424,424,423,423,422,421,421,420,419,419,418,418,418,418,417,417,417,416,416,417,417,417,418,418,418,419,420,420,421,422,422,422,423,423,423,424,424,424,424,424,424,424,424,424,424,424,424,424,424,425,425,425,425,425,426,426,426,427,427,427,427,427,427,428,428,428,428,428,428,428,428,428,428,428,428,428,427,427,427,427,427,427,427,427,427,427,427,427,427,427,427,427,427,427,427,427,427,427,427,427,427,427,427,427,428,428,428,428,428,428,429,429,430,430,431,432,433,433,433,434,434,435,436,436,436,436,437,437,437,436,436,436,435,435,435,433,433,433,432,432,432,431,431,430,430,430,430,430
426,427,427,427,426,426,426,426,426,426,425,425,425,424,424,424,423,422,422,422,421,421,420,420,420,420,419,419,419,419,419,419,420,420,420,420,420,420,419,419,419,418,417,417,417,0,0,0,0,417,414,414,414,414,414,414,415,415,416,417,418,418,419,420,421,421,422,422,422,422,422,423,423,423,423,423,423,423,423,423,423,423,423,423,423,423,423,423,423,423,424,424,424,424,424,424,424,423,423,423,422,422,422,421,421,420,419,419,419,418,418,418,417,417,417,417,417,416,416,416,416,416,416,416,416,415,415,415,415,415,415,414,414,414,413,413,412,411,411,410,409,409,408,407,407,406,406,406,405,405,405,405,405,406,406,406,406,406,407,407,407,408,408,408,408,409,409,408,408,408,407,407,406,405,405,404,404,404,403,402,402,400,400,400,399,398,398,397,396,396,396,395,395,395,395,395,394,394,394,394,394,393,393,393,393,393,392,392,392,392,392,392,391,391,391,391,390,390,390,390,390,390,389,389,389,389,389,389,388,388,388,388,388,388,388,388,388,389,388,388,388,388,388,388,388,388,388,388,388,388,388,388,388,388,389,389,389,389,389,389,389,389,389,390,390,390,390,390,391,391,391,391,391,392,391,391,391,391,391,390,390,390,389,389,389,389,389,389,390,390,390,390,390,391,391,392,392,392,392,392,392,392,392,392,392,392,392,392,393,393,393,393,393,393,393,394,394,394,395,395,395,395,396,396,396,396,396,396,396,396,396,396,396,396,395,395,395,395,395,395,395,394,394,394,394,394,394,394,394,394,394,394,394,394,394,394,394,394,394,394,394,394,395,395,0,0,403,403,403,405,406,407,406,406,406,406,405,405,405,405,405,406,406,406,407,407,407,408,409,409,409,409,409,409,410,410,410,410,410,410,410,411,411,411,411,412,412,412,411,411,411,411,411,411,411,411,411,411,411,411,411,411,411,411,412,412,413,413,413,414,414,414,414,415,415,415,416,416,416,416,417,417,417,417,417,417,417,417,417,417,417,417,417,417,417,416,416,416,416,416,416,416,415,415,415,415,415,414,414,414,414,414,413,413,413,413,413,413,412,412,412,412,412,411,411,411,410,410,409,409,408,408,408,407,407,407,406,406,406,406,406,406,406,406,406,406,406,406,406,406,407,407,407,407,407,407,407,407,407,406,406,406,406,406,406,406,406,406,406,406,406,406,406,406,406,407,407,407,408,408,408,409,409,409,409,410,410,410,411,411,411,411,411,411,411,411,411,411,410,410,410,410,410,410,410,410,410,410,410,410,410,410,410,409,409,409,409,409,409,409,408,408,408,408,408,408,408,408,408,408,408,408,408,408,408,408,411,411,0,0,423,423,424,424,424,425,424,424,424,422,421,421,420,420,420,419,418,418,417,417,417,416,416,416,416,416,416,417,417,418,418,419,419,420,421,422,422,423,423,423,424,424,424,424,424,424,424,424,424,424,424,424,424,424,425,425,425,425,425,426,426,426,427,427,427,427,427,427,428,428,428,428,428,428,428,428,428,428,428,428,427,427,427,427,427,427,427,427,427,427,426,426,426,426,426,426,426,426,426,426,426,426,426,427,427,427,427,427,427,427,427,427,427,427,427,428,428,429,429,430,430,430,431,432,434,434,435,436,436,436,436,437,437,437,437,437,436,436,436,435,434,434,433,433,433,432,431,431,430,430,430,430,430
426,427,427,427,427,427,426,426,426,426,425,425,425,424,424,424,423,422,422,422,421,421,420,420,420,419,419,419,419,419,419,419,419,419,419,419,419,419,418,417,417,416,416,417,417,0,0,412,412,412,411,411,412,412,412,412,413,413,414,415,416,416,417,418,418,419,420,421,421,421,422,422,422,422,422,422,422,422,422,423,422,422,422,422,422,422,422,423,423,423,424,424,424,424,424,424,424,423,423,423,422,422,422,421,421,420,420,420,420,419,419,418,417,417,417,417,417,416,416,416,416,416,416,416,415,415,415,415,415,415,414,414,414,413,413,413,412,411,411,410,409,409,408,407,407,406,406,406,405,405,405,405,405,406,406,406,406,406,407,407,407,408,408,408,408,409,409,408,408,408,407,407,406,406,406,405,404,404,403,402,402,401,400,400,399,398,398,397,397,397,396,396,396,395,395,395,394,394,394,394,394,393,393,393,393,393,392,392,392,392,392,392,391,391,391,391,390,390,390,390,390,390,389,389,389,389,389,389,389,389,388,388,388,388,388,388,389,389,389,389,389,389,388,388,388,388,388,388,388,388,388,388,388,388,389,389,389,389,389,389,389,389,389,390,390,390,390,390,391,391,391,391,391,392,392,392,391,391,391,390,390,390,390,389,389,389,389,389,390,390,390,390,390,391,391,392,392,392,392,392,392,392,392,392,392,392,392,392,392,392,393,393,393,393,394,394,394,394,395,395,395,395,395,395,395,396,396,396,396,396,396,396,396,395,395,395,395,395,395,395,395,394,394,394,394,394,394,394,394,394,394,394,394,394,394,394,394,395,395,395,395,395,395,395,0,0,403,403,403,405,406,407,406,406,406,405,405,405,405,405,405,406,406,406,407,407,407,408,408,408,409,409,409,409,410,410,410,410,410,411,411,411,411,411,411,412,412,412,411,411,411,411,411,411,411,411,411,411,411,411,411,411,411,411,412,412,413,413,413,414,414,414,414,415,415,415,416,416,416,416,417,417,417,417,417,417,417,417,417,417,417,417,417,417,417,416,416,416,416,416,416,416,415,415,415,415,415,414,414,414,414,414,413,413,413,413,413,412,412,412,412,411,411,411,411,411,410,409,409,409,408,407,407,407,406,406,406,406,406,406,406,406,406,406,406,406,406,406,406,406,406,407,407,407,407,407,407,407,407,406,406,406,406,406,406,406,406,406,406,406,406,406,407,407,407,407,407,407,408,408,408,409,409,409,409,410,410,410,411,411,411,411,411,411,411,411,411,411,410,410,410,410,410,410,410,410,410,410,410,410,409,409,409,409,409,409,409,409,409,409,409,408,408,408,408,408,408,408,408,408,408,408,408,408,408,408,409,409,412,0,422,422,423,423,424,424,424,423,423,422,422,422,421,420,420,419,418,418,417,417,417,416,416,416,416,416,416,417,417,418,418,419,419,420,421,422,422,422,422,422,423,423,423,423,423,424,424,424,424,424,424,424,424,424,425,425,425,425,425,426,426,426,427,427,427,427,427,427,428,428,428,428,428,428,428,428,428,428,427,427,427,427,427,427,427,427,427,427,426,426,426,426,426,426,426,426,426,426,426,426,426,426,426,427,427,427,427,427,427,427,427,427,427,427,427,428,428,429,429,430,430,430,431,432,433,433,434,435,436,436,436,437,437,437,437,437,436,436,436,435,434,434,433,433,433,432,431,431,431,430,430,430,430
426,427,427,427,427,427,426,426,426,426,425,425,425,424,424,424,423,422,422,422,421,421,420,420,420,419,419,419,419,419,419,419,419,418,418,418,417,417,417,416,416,416,413,413,412,411,411,410,410,410,410,410,410,410,410,410,410,411,412,413,413,416,417,418,418,419,420,421,421,421,422,422,422,422,422,422,422,422,422,423,422,422,422,422,422,422,422,422,422,423,423,423,423,423,423,423,423,423,423,422,422,422,422,421,421,420,420,420,420,419,419,418,418,418,417,417,417,417,416,416,416,416,416,416,415,415,415,415,414,414,414,414,414,413,413,412,412,411,411,410,409,409,408,407,407,406,406,406,406,405,405,406,406,406,406,406,406,407,407,407,408,408,408,408,409,409,409,408,408,408,407,407,406,406,406,405,404,404,403,402,402,401,400,400,399,398,398,397,397,397,396,396,396,395,395,395,394,394,394,394,393,393,393,393,393,393,392,392,392,392,391,391,391,391,391,391,390,390,390,390,390,390,389,389,389,389,389,389,389,389,389,389,389,389,389,389,389,389,389,389,389,389,389,389,389,389,389,389,388,388,388,388,388,388,389,389,389,389,389,389,389,389,389,390,390,390,390,390,391,391,391,391,391,391,391,391,391,391,391,390,390,390,390,389,389,389,390,390,390,390,391,391,391,391,392,392,392,392,392,392,392,392,392,392,392,392,392,392,392,392,393,393,393,393,394,394,394,395,395,395,395,395,395,395,395,396,396,396,396,396,396,396,396,395,395,395,395,395,395,395,395,394,394,394,394,394,394,394,394,394,394,394,394,394,394,394,394,395,395,395,395,395,395,395,397,0,402,402,402,404,405,406,406,406,406,405,404,404,404,404,405,405,405,406,406,406,406,407,408,408,409,409,409,409,410,410,410,410,411,411,411,411,412,412,412,412,412,411,411,411,411,411,411,411,411,411,411,411,411,411,411,411,411,411,412,412,413,413,413,414,414,414,415,415,415,415,416,416,416,416,417,417,417,417,417,417,417,417,417,417,417,417,417,417,417,416,416,416,416,416,416,416,415,415,415,415,415,415,414,414,414,414,413,413,413,413,413,412,412,412,412,411,411,411,410,410,410,409,409,408,408,407,407,406,406,406,406,406,406,406,406,406,406,406,406,406,406,406,406,406,406,407,407,407,407,407,407,407,407,407,406,406,406,406,406,406,406,406,406,406,406,406,407,407,407,407,407,407,408,408,408,409,409,409,409,410,410,410,411,411,411,411,411,411,411,411,411,410,410,410,410,410,410,410,410,410,410,410,409,409,409,409,409,409,409,409,409,409,409,409,409,408,408,408,408,408,408,408,408,408,408,408,408,408,408,408,409,409,412,0,422,422,423,423,424,424,424,423,423,422,421,421,420,419,419,419,418,418,417,417,416,416,416,416,416,416,416,416,416,417,417,418,418,419,420,420,420,421,422,422,422,422,423,423,423,424,424,424,424,424,424,424,424,424,425,425,425,425,426,426,426,426,427,427,427,427,427,427,428,428,428,428,428,428,428,428,428,428,427,427,427,427,427,427,427,427,427,427,426,426,426,426,426,426,426,426,426,426,426,426,426,426,426,426,426,426,426,426,426,426,426,426,427,427,427,427,427,427,428,429,429,429,430,431,432,432,433,434,435,435,436,436,436,437,437,437,437,436,436,436,435,435,434,433,433,432,432,432,431,430,430,430,430
426,427,427,427,427,427,427,426,426,426,426,425,425,425,424,424,423,422,422,422,421,421,420,420,420,419,419,419,419,419,419,419,418,418,418,418,417,417,417,416,416,416,413,413,412,411,411,410,410,410,410,410,410,410,410,410,410,411,412,413,413,414,416,417,417,419,419,420,420,421,421,422,422,422,422,422,422,422,422,422,422,422,422,422,422,422,422,422,422,422,422,422,422,422,422,422,422,422,423,422,422,422,422,421,421,421,420,420,420,419,419,419,418,418,418,417,417,417,417,416,416,416,416,416,415,415,415,415,414,414,414,414,414,413,413,412,412,411,411,411,410,409,409,408,407,406,406,406,406,405,405,406,406,406,406,406,406,407,407,407,408,408,408,408,409,409,409,408,408,408,407,407,407,406,406,405,404,404,403,402,402,401,400,400,399,398,398,398,397,397,396,396,396,395,395,395,395,394,394,394,393,393,393,393,393,393,392,392,392,392,391,391,391,391,391,391,390,390,390,390,390,390,390,389,389,389,389,389,389,389,389,389,389,389,389,389,389,389,389,389,389,389,389,389,389,389,389,389,388,388,388,388,388,388,388,388,389,389,389,389,389,390,390,390,390,390,390,390,391,391,391,391,391,391,391,391,391,391,391,390,390,390,390,390,390,390,390,390,390,390,391,391,391,392,392,392,392,392,392,392,392,392,392,392,392,392,392,392,393,393,393,393,394,394,394,395,395,395,395,395,395,395,395,395,395,395,395,395,395,395,395,395,395,395,395,395,395,395,395,395,394,394,394,394,394,394,394,394,394,394,394,394,395,395,395,395,395,395,395,395,395,395,395,395,396,0,402,402,402,402,403,404,404,405,405,404,403,403,403,403,404,405,405,406,406,406,406,407,408,408,409,409,409,409,410,410,410,410,411,411,411,411,412,412,412,412,412,411,411,411,411,410,410,410,410,410,410,410,411,411,411,411,411,411,412,412,413,413,413,414,414,414,415,415,415,416,416,416,416,416,417,417,417,417,417,417,417,417,417,417,417,417,417,417,417,416,416,416,416,416,416,416,415,415,415,415,415,415,414,414,414,414,414,414,413,413,413,412,412,412,412,411,411,411,410,410,410,409,409,408,408,407,407,406,406,406,406,406,406,405,405,405,405,405,406,406,406,406,406,406,406,407,407,407,407,407,407,407,407,407,407,406,406,406,406,406,406,407,407,407,407,407,407,407,407,407,407,407,408,408,408,408,409,409,409,409,410,410,410,411,411,411,411,411,410,410,410,410,410,410,410,410,410,410,410,410,410,410,409,409,409,409,409,409,409,409,409,409,409,409,409,408,408,408,408,408,408,408,408,408,408,408,408,408,408,408,409,409,412,0,419,419,419,421,422,423,423,422,422,422,421,421,420,419,419,418,418,418,417,416,416,416,416,416,416,416,416,416,416,417,417,417,417,418,419,419,419,420,421,421,421,422,422,422,422,424,424,424,424,424,424,424,425,425,425,425,425,425,426,426,426,427,427,427,427,427,427,427,428,428,428,428,428,428,428,428,428,427,427,427,427,427,427,427,427,427,427,426,426,426,426,426,426,426,426,425,425,425,425,425,425,425,425,425,425,425,425,425,425,426,426,426,426,426,426,426,427,427,427,428,428,428,429,430,431,431,432,433,434,434,435,436,436,437,437,438,437,437,437,436,436,0,435,434,434,433,432,432,431,431,431,430,430
426,426,426,426,426,426,426,426,426,426,426,425,425,425,424,424,423,422,422,422,421,421,420,420,420,419,419,419,419,419,419,419,418,418,418,417,416,416,415,415,416,416,413,411,410,410,409,409,409,408,408,408,408,408,409,409,409,410,411,412,412,413,414,416,416,417,419,420,420,420,421,421,421,422,422,422,422,422,422,422,422,422,422,422,422,422,422,422,422,422,422,422,422,422,422,422,422,422,423,422,422,422,422,422,422,421,421,421,420,420,420,419,419,419,418,418,417,417,417,416,416,416,416,416,415,415,415,415,414,414,414,414,414,413,413,412,412,411,411,411,410,409,409,408,407,407,406,406,406,406,406,406,406,406,406,406,407,407,407,407,408,408,408,409,409,409,409,408,408,408,407,407,407,406,406,405,404,404,403,402,402,401,400,400,399,398,398,398,397,397,397,396,396,396,395,395,395,394,394,394,394,393,393,393,393,393,392,392,392,392,391,391,391,391,391,391,390,390,390,390,390,390,390,389,389,389,389,389,389,389,389,389,389,389,389,389,389,389,389,389,389,389,389,389,389,389,389,389,388,388,388,388,388,388,388,388,389,389,389,389,389,389,389,390,390,390,390,390,391,391,391,391,391,391,391,391,391,391,391,390,390,390,390,390,390,390,390,390,390,390,391,391,391,392,392,392,392,392,392,392,392,392,392,392,392,392,392,392,393,393,393,393,394,394,394,395,395,395,395,395,395,395,395,395,395,395,395,395,395,395,395,395,395,395,395,395,395,395,395,395,394,394,394,394,394,394,394,394,394,395,395,395,395,395,395,395,395,395,395,395,395,395,396,396,396,0,0,0,402,402,403,404,404,405,405,404,403,403,403,403,404,405,405,405,406,406,406,407,407,407,408,409,409,409,409,410,410,410,411,411,411,411,412,412,412,412,412,411,411,411,410,410,410,410,410,410,410,410,410,410,410,411,411,411,412,412,413,413,413,414,414,414,415,415,415,416,416,416,416,417,417,417,417,417,417,417,417,417,417,417,417,417,417,417,417,417,416,416,416,416,416,416,416,416,416,415,415,415,414,414,414,414,413,413,413,412,412,412,412,412,411,411,411,410,410,410,409,409,408,408,407,407,407,406,406,406,406,405,405,405,405,405,405,405,406,406,406,406,406,406,406,407,407,407,407,407,407,407,407,407,407,407,407,407,407,407,407,407,407,407,407,407,407,407,407,407,407,407,408,408,408,408,409,409,409,409,410,410,410,411,411,411,411,411,410,410,410,410,410,410,410,410,410,410,409,409,409,409,409,409,409,409,409,409,409,409,409,409,409,409,409,408,408,408,408,408,408,408,408,408,408,408,408,408,408,408,409,409,411,414,417,417,417,419,420,421,421,421,421,421,420,420,419,419,419,418,417,417,417,416,416,416,416,416,416,416,416,416,416,417,417,417,417,418,419,419,419,420,421,421,421,422,422,422,422,423,423,423,424,424,424,424,425,425,425,425,425,425,426,426,426,427,427,427,427,427,427,427,428,428,428,428,428,428,428,428,428,427,427,427,427,427,427,427,427,426,426,426,426,426,426,426,425,425,425,425,425,425,425,425,425,425,425,425,425,425,425,425,425,426,426,426,426,426,426,426,427,427,427,428,428,428,429,430,431,431,432,433,434,434,435,436,436,437,437,438,437,437,437,436,436,436,435,434,434,433,432,432,431,431,431,430,430
426,426,426,426,426,426,426,426,426,426,425,425,425,424,424,424,423,422,422,422,421,421,420,419,419,419,419,419,419,418,418,418,418,418,417,416,416,415,414,414,412,411,411,409,408,408,407,407,407,407,407,407,407,407,408,408,408,409,410,411,411,412,414,415,415,417,418,419,419,420,421,421,421,422,422,422,422,422,422,422,422,422,422,422,422,422,422,422,422,422,422,422,422,422,422,422,422,422,422,422,422,422,422,422,422,421,421,421,420,420,420,419,419,419,418,418,417,417,417,417,417,416,416,416,416,415,415,415,414,414,414,414,414,413,412,412,412,411,411,411,410,409,409,408,407,407,407,406,406,406,406,406,406,406,406,406,407,407,408,408,408,408,409,409,409,409,409,409,409,408,407,407,407,406,406,405,404,404,403,402,402,401,400,400,399,398,398,398,397,397,397,396,396,396,395,395,395,394,394,394,394,393,393,393,393,393,392,392,392,392,392,392,391,391,391,391,391,390,390,390,390,390,390,390,390,389,389,389,389,389,389,389,389,389,389,389,389,389,389,389,389,389,389,389,389,389,389,389,388,388,388,388,388,388,388,388,389,389,389,389,389,389,389,390,390,390,390,390,390,390,391,391,391,391,391,391,391,390,390,390,390,390,390,390,390,390,390,390,390,390,391,391,391,392,392,392,392,392,392,392,392,392,392,392,392,392,392,392,392,392,393,393,394,394,395,395,395,395,395,395,395,395,395,395,395,395,395,395,395,395,395,395,395,395,395,395,395,395,395,395,394,394,394,394,394,395,395,395,395,395,395,396,396,396,395,395,395,395,395,395,395,395,396,396,396,0,0,0,400,400,401,401,402,403,403,403,403,403,402,402,403,404,404,404,405,405,406,406,407,407,408,408,409,409,409,410,410,410,411,411,411,411,411,411,411,411,411,411,410,410,410,410,410,410,410,410,410,410,410,410,410,411,411,411,412,412,413,413,413,414,414,414,415,415,415,416,416,416,416,417,417,417,417,417,417,417,417,417,417,417,417,417,417,417,417,417,416,416,416,416,416,416,416,416,416,415,415,415,415,414,414,414,413,413,413,412,412,412,411,411,411,410,410,410,409,409,409,408,408,408,407,406,406,406,406,406,406,405,405,405,405,405,405,405,406,406,406,406,406,406,406,407,407,407,407,407,407,407,407,408,407,407,407,407,407,407,407,407,407,407,407,407,407,407,407,407,407,407,407,408,408,408,408,408,409,409,410,410,410,410,410,410,410,410,410,410,410,410,410,410,409,409,409,409,409,409,409,409,409,409,409,409,409,409,409,409,409,409,409,409,409,409,409,409,409,408,408,408,408,408,408,408,408,408,408,408,409,409,411,414,417,417,417,419,420,421,421,421,421,421,420,420,419,419,419,418,417,417,417,416,416,416,416,416,416,416,416,416,416,416,417,417,417,417,418,418,419,419,420,420,420,421,422,422,422,423,423,423,423,424,424,424,425,425,425,425,426,426,426,426,426,427,427,427,427,427,428,428,428,428,428,428,428,428,428,427,427,427,427,427,427,427,427,427,427,426,426,426,426,426,426,426,425,425,425,425,425,425,425,425,425,425,425,425,425,425,425,425,425,425,425,425,425,426,426,426,426,426,426,427,427,427,428,429,430,430,431,432,432,434,435,436,436,436,437,438,438,437,437,437,436,436,435,434,434,433,432,432,432,431,431,431,430
426,426,426,426,426,426,426,426,426,425,425,425,425,424,423,423,423,422,422,421,421,421,420,419,419,419,419,419,418,418,418,418,417,417,416,415,415,414,414,414,412,411,411,409,408,408,407,407,407,407,407,407,407,407,408,408,408,409,410,411,411,412,414,415,415,417,418,419,419,420,420,421,421,421,422,422,422,422,422,422,422,422,422,422,422,422,421,421,421,422,422,422,422,422,422,422,422,422,422,422,422,422,422,422,422,421,421,421,421,420,420,419,419,419,418,418,418,418,417,417,417,416,416,416,416,415,415,415,414,414,414,414,414,413,412,412,412,412,411,411,410,409,409,408,408,408,407,407,407,406,406,406,406,406,406,406,407,407,408,408,408,408,409,409,409,409,409,409,409,408,407,407,407,406,406,405,404,404,403,402,402,401,400,400,399,398,398,398,397,397,397,396,396,396,395,395,395,394,394,394,394,393,393,393,393,393,392,392,392,392,392,392,392,391,391,391,391,391,391,391,390,390,390,390,390,390,390,389,389,389,389,389,389,389,389,389,389,389,389,389,389,389,389,389,389,389,389,389,388,388,388,388,388,388,388,388,389,389,389,389,389,389,389,390,390,390,390,390,390,390,390,391,391,391,390,390,390,390,390,390,390,390,390,389,389,389,390,390,390,390,391,391,391,392,392,392,392,392,392,392,391,391,391,391,392,392,392,392,392,392,393,393,0,395,395,395,395,395,396,396,395,395,395,395,395,395,395,395,395,395,395,395,395,395,395,395,395,395,394,394,394,394,394,394,394,395,395,395,395,395,395,396,396,396,396,396,396,396,396,396,396,396,396,396,396,397,398,398,398,400,400,400,400,403,403,403,0,0,402,402,402,403,403,403,404,404,405,406,407,407,408,408,409,409,409,410,410,410,411,411,411,411,411,411,411,411,411,411,410,410,410,410,410,410,410,410,410,410,410,410,410,411,411,411,412,412,413,413,413,414,414,414,415,415,415,416,416,416,416,417,417,417,417,417,417,417,417,418,417,417,417,417,417,417,417,417,416,416,416,416,416,416,416,416,416,415,415,415,415,414,414,414,413,413,413,412,412,411,411,411,411,410,410,410,409,409,409,408,408,408,407,406,406,406,406,406,406,405,405,405,405,405,405,405,406,406,406,406,406,406,406,407,407,407,407,407,407,407,407,408,407,407,407,407,407,407,407,407,407,407,407,407,407,407,407,407,407,407,407,407,407,408,408,408,408,408,409,409,409,410,410,410,410,410,410,409,409,409,409,409,409,409,409,409,409,409,409,409,409,409,409,409,409,409,409,409,409,409,409,409,409,409,409,409,409,409,409,409,409,409,408,408,408,408,408,408,409,409,411,413,414,414,417,418,419,420,420,420,420,420,419,419,419,418,418,418,417,417,417,416,416,416,416,416,416,416,416,416,416,416,417,417,417,417,417,417,418,418,419,419,420,420,421,421,421,422,422,423,423,424,424,424,424,424,425,425,426,426,426,426,426,427,427,427,427,427,428,428,428,428,428,428,428,428,428,427,427,427,427,427,427,427,427,427,427,426,426,426,426,426,426,426,425,425,425,425,425,425,424,424,424,424,424,424,424,424,424,424,425,425,425,425,425,425,425,425,425,425,426,426,426,426,427,428,428,429,430,432,432,433,434,435,435,436,437,437,437,437,437,437,436,436,436,435,434,434,433,432,432,431,431,431,430
426,426,426,426,426,426,425,425,425,425,425,424,424,424,423,423,423,422,422,421,421,421,420,419,419,419,419,419,418,418,418,418,417,417,416,415,415,414,414,0,0,409,409,408,407,407,406,406,406,406,406,406,406,407,407,408,408,409,410,411,411,412,413,415,415,416,418,419,419,420,420,421,421,421,421,421,421,422,422,422,422,422,422,422,422,421,421,421,421,421,421,421,421,421,422,422,422,422,422,422,423,423,422,422,422,421,421,421,421,420,420,420,419,419,419,418,418,418,417,417,417,417,416,416,416,415,415,415,414,414,414,414,413,413,412,412,412,412,411,411,410,409,409,408,408,408,407,407,407,406,406,406,406,407,407,407,407,407,408,408,408,409,409,409,409,409,409,408,408,408,407,407,407,406,406,405,404,404,403,402,402,401,400,400,399,398,398,398,398,398,397,397,397,396,396,395,395,395,394,394,394,394,394,393,393,393,393,393,393,392,392,392,392,392,391,391,391,391,391,391,390,390,390,390,390,390,390,389,389,389,389,389,389,389,389,389,389,389,389,389,389,389,389,389,389,389,389,388,388,388,388,388,388,388,388,388,388,389,389,389,389,389,389,389,390,390,390,390,390,390,390,390,390,390,390,390,390,390,390,390,390,390,390,389,389,389,390,390,390,390,391,391,392,392,392,392,392,392,392,392,391,391,391,391,391,391,391,392,392,392,393,393,394,394,395,395,395,395,396,396,395,395,395,395,395,395,395,395,395,395,395,395,395,395,395,395,395,394,394,394,394,394,395,395,395,395,395,395,395,396,396,396,396,396,396,396,397,396,396,396,396,396,396,396,396,397,398,398,398,400,400,400,400,0,0,0,0,0,0,402,402,403,403,403,404,404,405,406,407,407,408,408,408,408,409,409,409,410,410,411,411,411,411,411,411,411,411,410,410,410,410,410,410,410,410,410,410,410,410,410,410,411,411,411,412,412,413,413,413,414,414,414,415,416,416,416,416,416,416,417,417,417,417,417,417,417,418,418,418,417,417,417,417,417,417,417,417,417,416,416,416,416,416,416,416,415,415,415,415,414,414,414,413,413,413,412,412,411,411,411,410,410,410,409,409,409,408,408,408,407,407,406,406,406,406,406,406,405,405,405,405,405,405,405,406,406,406,406,406,406,406,407,407,407,407,407,407,408,408,408,408,408,408,408,408,408,408,408,408,408,408,408,408,407,407,407,407,407,407,407,407,408,408,408,408,408,409,409,409,410,410,410,410,410,410,409,409,409,409,409,409,409,409,409,409,409,409,409,409,409,409,409,409,409,409,409,409,409,409,409,409,409,409,409,409,409,409,409,409,409,408,408,408,408,408,408,409,409,411,412,414,414,415,416,417,417,418,419,419,419,418,418,418,418,418,417,417,417,417,416,416,416,416,416,416,416,416,416,416,416,417,417,417,417,417,417,418,418,419,419,420,420,421,421,421,422,422,423,423,424,424,424,424,424,425,425,426,426,426,426,426,427,427,427,427,427,428,428,428,428,428,428,428,428,427,427,427,427,427,427,427,427,427,427,427,427,427,426,426,426,426,426,426,426,425,425,425,425,424,424,424,424,424,424,424,424,424,424,424,424,424,424,425,425,425,425,425,425,426,426,426,426,427,428,428,429,430,432,433,433,434,435,435,436,437,437,437,437,437,437,436,436,436,435,434,434,433,432,432,431,431,431,430
426,426,426,426,426,426,425,425,425,425,425,424,424,424,423,423,422,422,422,421,421,421,420,419,419,419,418,418,418,418,418,417,416,416,415,414,414,413,411,411,409,408,408,407,407,407,406,406,406,406,406,406,406,407,407,407,407,408,409,410,410,412,413,414,414,416,417,418,418,419,420,421,421,421,421,421,421,422,422,422,422,422,422,422,422,421,421,421,421,421,421,421,421,421,422,422,422,422,423,423,423,423,422,422,422,421,421,421,421,420,420,420,419,419,419,418,418,418,417,417,417,417,416,416,416,415,415,415,414,414,414,414,413,413,413,412,412,412,411,411,410,410,410,409,408,408,408,407,407,407,407,407,407,407,407,407,407,408,408,408,408,409,409,409,409,409,409,408,408,408,407,407,407,406,406,405,404,404,403,402,402,401,400,400,399,399,399,398,398,398,397,397,396,396,396,395,395,395,394,394,394,394,394,393,393,393,393,393,393,392,392,392,392,392,392,392,391,391,391,391,391,391,390,390,390,390,390,389,389,389,389,389,389,389,389,389,389,389,389,389,389,389,389,389,389,389,389,388,388,388,388,388,388,388,388,388,388,389,389,389,389,389,389,389,390,390,390,390,390,390,390,390,390,390,390,390,390,390,390,389,389,389,389,389,389,389,389,390,390,390,391,391,391,391,391,392,391,391,392,391,391,391,391,391,391,391,391,392,392,392,393,394,394,394,395,396,396,396,396,396,396,395,395,395,395,395,395,394,394,395,394,394,395,395,395,395,395,394,394,394,394,394,395,395,395,395,395,395,396,396,396,397,397,397,397,397,397,397,397,397,397,397,396,396,396,397,397,397,398,400,400,400,400,0,0,0,0,0,0,401,401,401,402,403,404,404,404,405,406,406,407,408,408,408,409,409,409,410,410,410,410,411,411,411,411,411,411,410,410,410,410,409,409,409,409,409,409,409,410,410,410,410,411,411,412,412,413,413,413,414,414,414,415,416,416,416,416,416,416,417,417,417,417,417,418,418,418,418,418,418,418,417,417,417,417,417,417,417,416,416,416,416,416,416,415,415,415,415,414,414,414,414,413,413,412,412,412,411,411,411,410,409,409,409,408,408,408,407,407,407,406,406,406,406,406,406,406,405,405,405,405,405,406,406,406,406,406,406,406,406,407,407,407,407,408,408,408,408,408,408,408,408,408,408,408,408,408,408,408,408,408,408,408,407,407,407,407,407,407,407,407,407,407,407,408,408,408,408,409,409,409,409,409,409,409,409,409,409,409,409,409,408,408,408,408,408,408,408,408,408,408,408,408,408,408,408,409,409,409,409,409,409,409,409,409,409,409,409,409,409,409,409,409,409,409,409,410,410,411,412,413,413,415,416,417,417,418,419,419,419,418,418,418,418,418,417,417,417,417,416,416,416,416,416,416,416,416,416,416,416,417,417,417,417,417,417,417,418,418,418,419,420,420,420,421,422,422,423,423,424,424,424,424,424,425,425,426,426,426,427,427,427,427,427,427,427,428,428,428,428,428,427,427,427,427,427,427,427,427,427,427,427,427,427,427,427,427,427,427,427,427,426,426,426,425,425,425,425,425,425,424,424,424,424,424,424,424,424,424,424,424,424,425,425,425,425,425,425,425,425,426,426,426,427,427,428,429,431,431,432,433,434,434,435,436,437,437,437,437,437,436,436,436,435,434,434,433,432,432,432,431,431,431
426,426,426,425,425,425,425,425,425,424,424,424,424,423,423,423,422,421,421,421,420,420,420,419,419,419,418,418,418,417,417,416,415,415,414,413,413,411,410,410,409,408,408,407,406,406,406,406,406,406,406,406,406,407,407,407,407,408,409,410,410,412,413,414,414,416,417,418,418,419,420,421,421,421,421,421,421,422,422,422,422,422,422,422,422,421,421,421,421,421,421,421,421,421,421,421,422,422,423,423,423,423,422,422,422,422,421,421,421,420,420,420,419,419,419,419,418,418,418,417,417,417,416,416,416,416,416,415,415,415,414,414,413,413,413,412,412,412,411,411,411,410,410,409,409,409,408,408,408,407,407,407,407,407,407,408,408,408,408,408,408,409,409,409,409,409,409,408,408,408,407,407,407,406,406,405,404,404,403,402,402,401,400,400,399,399,399,398,398,398,397,397,396,396,396,395,395,395,395,395,394,394,394,394,393,393,393,393,393,393,393,392,392,392,392,392,392,392,392,391,391,391,391,390,390,390,390,389,389,389,389,389,389,389,389,389,389,389,389,389,389,389,389,389,389,389,389,388,388,388,388,388,388,388,388,388,388,389,389,389,389,389,389,389,390,389,389,390,390,390,390,390,390,390,390,390,389,389,389,389,389,389,389,389,389,389,389,389,390,390,390,391,391,391,391,391,391,391,391,391,391,391,391,391,391,391,391,392,392,392,393,395,395,395,396,396,396,396,396,396,396,395,395,395,395,395,395,394,394,395,394,394,395,395,395,395,395,394,394,394,394,394,395,395,395,395,395,395,396,396,396,397,397,397,397,397,397,397,397,397,397,397,397,397,397,397,397,397,398,398,0,398,398,398,398,398,0,0,0,400,400,400,402,402,403,403,404,405,406,406,407,407,408,408,408,409,409,410,410,410,410,411,411,411,411,411,411,410,410,410,410,409,409,409,409,409,409,409,410,410,410,410,411,411,412,412,413,413,413,414,414,414,415,416,416,416,416,416,416,417,417,417,417,417,418,418,418,418,418,418,418,417,417,417,417,417,417,417,416,416,416,416,416,416,415,415,415,414,414,414,414,413,413,413,412,411,411,411,410,410,410,409,409,408,408,408,407,407,407,407,406,406,406,406,406,406,406,406,406,406,406,406,406,406,406,406,406,406,406,406,407,407,407,407,408,408,408,408,408,408,408,408,408,408,408,408,408,408,408,408,408,408,408,407,407,407,407,407,406,406,406,407,407,407,407,407,407,408,408,408,408,409,409,409,409,409,409,409,408,408,408,408,408,408,408,408,408,408,408,408,408,408,408,408,408,408,409,409,409,409,409,409,409,409,409,409,410,410,410,410,410,410,410,410,410,410,410,410,411,412,413,413,414,415,416,416,417,417,417,417,417,417,417,417,417,417,417,417,416,416,416,416,416,416,416,416,416,416,416,416,416,416,416,416,416,416,417,417,418,418,418,419,420,420,421,422,422,422,423,423,423,424,424,424,425,425,426,426,426,426,427,427,427,427,427,427,428,428,428,428,428,427,427,427,427,427,427,427,427,427,427,427,427,427,427,427,427,427,427,427,427,426,426,426,425,425,425,425,425,425,424,424,424,424,424,424,424,424,424,424,424,424,424,424,424,425,425,425,425,425,425,425,426,427,427,427,428,430,430,431,432,433,433,435,435,436,436,437,437,437,436,436,436,435,435,435,434,433,433,432,432,432,431
425,425,425,425,425,425,424,424,424,424,423,423,423,423,422,422,422,421,421,421,420,420,420,419,419,419,418,418,418,417,417,416,415,415,414,413,413,411,410,410,409,408,408,407,406,406,406,406,406,406,406,406,406,407,407,407,407,408,409,410,410,412,413,414,414,416,417,418,418,419,420,420,420,421,421,421,421,421,422,422,422,422,421,421,421,421,421,421,421,421,421,421,421,421,421,421,422,422,423,423,423,423,423,422,422,422,421,421,421,420,420,420,419,419,419,419,418,418,418,418,418,417,417,417,416,416,416,416,415,415,414,414,414,414,413,413,413,412,411,411,411,410,410,409,409,409,408,408,408,407,407,407,407,407,407,408,408,408,408,408,408,409,409,409,409,409,409,409,409,408,408,408,407,406,406,405,404,404,403,402,402,401,400,400,399,399,399,398,398,398,397,397,397,397,396,396,396,395,395,395,395,395,395,394,394,394,394,394,393,393,393,393,393,393,392,392,392,392,392,392,391,391,391,390,390,390,390,389,389,389,389,389,389,389,389,389,389,389,389,389,389,389,389,389,389,389,388,388,388,388,388,388,388,388,388,388,388,388,389,389,389,389,389,389,389,389,389,390,390,390,390,390,390,390,389,389,389,389,389,388,388,388,388,388,388,388,389,389,390,390,390,391,391,391,391,391,391,391,391,391,391,391,391,391,391,391,391,392,393,394,394,395,395,395,396,396,396,396,396,396,396,395,395,395,395,394,394,394,394,394,394,394,394,394,394,395,395,394,394,395,395,395,395,395,395,396,396,396,396,397,397,397,397,398,398,398,398,397,397,397,397,397,397,397,397,397,397,397,397,397,397,397,397,398,398,398,0,0,0,400,400,400,402,402,403,403,404,405,406,406,407,407,408,408,408,409,409,410,410,410,410,410,411,411,411,410,410,410,410,410,409,409,409,409,409,409,409,409,409,410,410,410,411,411,412,412,413,413,413,414,415,415,415,416,416,416,416,416,416,416,417,417,417,417,418,418,418,418,418,418,418,418,417,417,417,417,417,417,416,416,416,416,416,416,415,415,415,414,414,414,414,413,413,413,412,411,411,411,410,410,410,409,409,408,408,408,407,407,407,407,406,406,406,406,406,406,406,406,406,406,406,406,406,406,406,406,406,406,406,406,407,407,407,407,408,408,408,408,408,408,408,408,408,408,408,408,408,408,408,408,408,408,408,407,407,407,407,406,406,406,406,406,406,406,406,406,406,407,407,408,408,409,409,409,409,409,409,409,408,408,408,408,408,408,408,408,408,408,408,408,408,408,408,408,408,408,409,409,409,409,409,409,409,409,409,409,410,410,410,410,410,410,410,410,410,410,410,410,411,412,413,413,413,414,414,414,415,415,415,416,416,416,416,416,416,416,416,416,416,416,416,416,416,416,416,416,416,416,417,417,416,416,416,416,416,416,417,417,418,418,418,419,420,420,421,422,422,422,423,423,423,424,424,424,425,425,426,426,426,426,427,427,427,427,427,427,428,428,428,427,427,427,427,427,427,427,427,427,427,427,427,427,427,427,427,427,427,427,427,427,427,427,426,426,426,426,426,425,425,425,424,424,424,424,424,424,424,424,424,424,424,424,424,424,424,424,425,425,425,425,425,425,426,426,426,427,428,430,430,431,432,433,433,435,435,436,436,437,437,437,436,436,436,436,435,435,434,433,433,432,432,432,431
425,425,425,425,425,425,424,424,424,424,423,423,423,423,422,422,422,421,421,421,420,420,420,419,419,419,418,418,418,417,417,416,414,414,414,412,412,410,409,409,408,407,407,406,406,406,406,406,406,406,406,406,407,407,407,407,407,408,410,411,411,412,413,414,414,416,417,418,418,419,420,420,420,420,421,421,421,421,421,421,421,421,421,421,421,421,421,421,421,421,421,421,421,421,422,422,422,423,423,423,423,423,423,422,422,422,421,421,421,420,420,420,419,419,419,419,418,418,418,418,418,417,417,417,416,416,416,416,415,415,414,414,414,414,413,413,413,412,412,412,411,410,410,410,409,409,409,408,408,408,408,408,408,407,407,408,408,408,408,408,408,409,409,409,409,409,409,409,409,408,407,407,407,406,406,405,404,404,403,402,402,401,400,400,399,399,399,398,398,398,398,397,397,397,397,396,396,395,395,395,395,395,395,394,394,394,394,394,393,393,393,393,393,393,392,392,392,392,392,392,391,391,391,390,390,390,390,390,390,389,389,389,389,389,389,389,389,389,389,389,389,389,389,389,389,388,388,388,388,388,388,388,388,388,388,388,388,388,388,388,389,389,389,389,389,389,389,390,390,390,390,390,390,390,389,389,389,389,389,388,388,388,388,388,388,388,389,389,389,389,390,390,390,390,391,391,391,391,391,391,391,391,391,391,391,391,391,392,393,394,394,396,396,396,396,397,397,397,396,396,396,395,395,395,395,394,394,394,394,394,394,394,394,394,394,395,395,395,395,395,395,395,395,395,395,396,396,396,397,397,398,398,398,398,398,398,398,398,398,397,397,397,398,398,397,397,398,398,397,397,397,397,397,398,398,398,0,0,399,399,400,400,401,402,403,403,404,405,406,406,406,407,408,408,408,409,409,409,410,410,410,410,410,410,410,410,410,410,410,410,409,409,409,409,409,409,409,409,409,410,410,410,411,411,411,412,413,413,413,414,415,415,415,416,416,416,416,416,416,416,417,417,417,417,418,418,418,418,418,418,418,418,418,418,418,417,417,417,417,416,416,416,415,415,415,414,414,414,414,414,414,413,413,413,412,411,411,411,410,410,409,409,409,408,407,407,407,407,407,406,406,406,406,406,406,406,406,406,406,406,406,406,406,406,406,406,406,406,406,406,406,406,407,407,407,408,408,408,408,408,408,408,408,408,408,408,408,408,408,408,408,408,408,407,407,407,407,406,406,406,406,406,406,406,406,406,406,407,407,408,408,408,408,408,408,408,409,408,408,408,408,408,408,408,408,408,408,408,408,408,408,408,408,408,408,408,408,408,409,409,409,409,409,410,410,410,410,410,410,411,411,411,411,411,411,411,411,411,412,412,413,413,413,413,413,413,413,414,414,414,416,416,416,416,416,416,416,416,416,416,416,416,416,416,416,416,417,417,417,417,416,416,416,416,416,416,417,417,417,417,418,419,420,420,421,422,422,422,423,423,423,424,424,424,425,425,425,425,426,426,427,427,427,427,427,427,427,427,427,427,427,427,427,427,427,427,427,427,427,427,427,427,427,427,427,427,427,427,427,427,427,427,427,427,426,426,426,425,425,425,425,424,424,424,424,424,424,424,424,424,424,424,424,424,424,424,425,425,425,425,425,425,426,426,426,427,428,429,429,431,432,433,433,434,435,436,436,436,436,436,436,436,436,436,435,435,434,433,433,433,432,432,432
425,425,425,424,424,424,424,424,424,423,423,423,423,422,422,422,421,421,421,421,420,420,420,419,419,419,418,418,417,416,416,415,414,414,414,411,411,409,408,408,407,407,407,406,406,406,406,406,406,406,406,406,407,407,407,408,408,409,410,411,411,412,413,415,415,416,417,418,418,419,420,420,420,420,421,421,421,421,421,421,421,421,421,421,421,421,420,420,420,420,420,421,421,421,422,422,422,423,423,423,423,423,423,422,422,422,421,421,421,420,420,420,419,419,419,419,419,419,418,418,418,418,417,417,417,416,416,416,415,414,414,414,413,413,413,413,413,412,412,412,411,411,411,410,410,410,409,409,409,408,408,408,408,408,408,408,408,408,408,408,408,409,409,409,409,409,409,409,409,408,407,407,407,406,406,405,404,404,403,402,402,401,400,400,399,399,399,398,398,398,398,397,397,397,397,396,396,396,395,395,395,395,395,395,395,394,394,394,394,394,394,393,393,393,393,393,392,392,392,392,391,391,391,391,390,390,390,390,390,389,389,389,389,389,389,389,389,389,389,389,389,389,389,389,389,388,388,388,388,388,388,388,388,388,388,388,388,388,388,388,389,389,389,389,389,389,389,389,389,389,389,390,389,389,389,389,389,388,388,388,388,388,388,388,388,388,388,388,389,389,389,390,390,390,390,391,391,391,391,391,390,390,390,390,391,391,391,392,393,394,394,396,396,397,397,397,397,397,397,397,396,396,395,395,395,394,394,394,394,394,394,394,394,394,394,395,395,395,395,395,395,395,395,396,396,396,396,396,397,397,398,398,398,398,398,398,398,398,398,397,397,397,398,398,397,397,398,398,397,397,397,397,397,397,397,398,398,398,398,398,399,399,401,402,403,403,403,404,405,405,406,407,408,408,408,409,409,409,410,410,410,410,410,410,410,410,410,410,410,410,409,409,409,409,409,409,409,409,409,410,410,410,411,411,411,412,413,413,413,414,415,415,415,416,416,416,416,416,416,416,416,416,416,417,417,417,418,418,418,418,418,418,418,418,418,417,417,417,417,416,416,416,415,415,414,414,414,414,414,413,413,413,412,412,412,411,411,410,410,410,409,408,408,407,407,407,406,406,406,406,406,406,406,406,406,406,406,406,406,406,406,406,406,406,406,406,406,406,406,406,406,406,407,407,407,408,408,408,408,408,408,408,408,408,408,408,408,408,408,408,408,407,407,407,407,407,407,406,406,406,406,406,406,406,406,406,406,406,407,407,407,407,408,408,408,408,408,408,408,408,408,408,408,408,408,408,408,408,408,408,408,408,408,408,408,408,408,408,408,409,409,409,409,410,410,410,411,411,411,411,412,412,412,412,412,412,412,412,412,413,413,413,413,413,413,413,413,414,414,414,414,415,415,415,415,415,415,416,416,416,416,416,416,416,416,416,417,417,417,417,416,416,416,416,416,416,416,416,417,417,418,418,418,419,420,421,421,422,423,423,423,424,424,424,424,425,425,425,426,426,427,427,427,427,427,427,427,427,427,427,427,427,427,427,427,427,427,427,427,427,427,427,427,427,427,427,427,428,428,428,428,428,427,427,427,426,426,425,425,425,425,424,424,424,424,424,424,423,423,424,424,424,424,424,424,424,425,425,425,425,425,425,426,426,426,427,428,429,429,430,431,432,432,433,434,435,435,436,436,436,436,436,436,436,435,435,434,434,434,433,432,432,432
424,424,424,424,424,424,423,423,423,423,422,422,422,422,422,422,421,421,421,420,420,420,420,419,419,419,418,418,417,416,416,415,415,0,0,411,411,409,408,408,407,407,407,406,406,406,406,406,406,406,406,406,407,407,407,408,408,409,410,411,411,412,413,415,415,416,417,418,418,419,420,420,420,420,421,421,421,421,421,421,421,421,421,420,420,420,420,420,420,420,420,420,420,421,421,421,422,423,424,424,424,424,423,422,422,422,421,421,420,420,419,419,419,419,419,419,419,419,419,418,418,418,417,417,417,416,416,416,415,414,414,414,413,413,413,413,413,412,412,412,411,411,411,410,410,410,409,409,409,408,408,408,408,408,407,407,407,408,408,408,408,408,408,408,409,409,409,409,409,408,407,407,407,406,405,405,404,404,403,402,402,401,400,400,400,399,399,399,398,398,398,398,398,398,397,396,396,396,396,396,395,395,395,395,395,395,395,395,395,395,394,394,394,394,393,393,393,392,392,392,391,391,391,391,390,390,390,390,390,389,389,389,389,389,389,389,389,389,389,389,389,389,389,389,389,388,388,388,388,388,388,388,388,388,388,388,388,388,388,388,389,389,389,389,389,389,389,389,389,389,389,389,389,389,389,389,388,388,388,388,388,388,388,388,388,388,388,388,389,389,389,389,389,390,390,391,391,391,391,391,390,390,390,390,391,391,391,392,393,0,0,396,396,397,397,397,397,397,397,397,396,396,395,395,395,394,394,394,394,394,394,394,394,394,394,395,395,395,395,395,395,395,395,396,396,396,397,397,397,398,398,398,398,399,399,399,398,398,398,398,398,398,398,398,398,398,398,398,397,397,397,397,397,397,397,398,398,398,398,398,399,399,400,402,403,403,403,404,405,405,406,407,408,408,408,409,409,409,410,410,410,410,410,410,410,410,410,410,409,409,409,409,409,409,409,409,409,409,409,409,409,410,411,411,411,412,413,413,413,414,415,415,415,416,416,416,416,416,416,416,416,416,416,417,417,417,418,418,418,418,418,418,418,418,418,418,417,417,417,416,416,415,415,415,414,414,414,413,413,413,413,413,412,412,412,411,411,410,410,410,409,408,408,407,407,407,406,406,406,406,406,406,406,406,406,406,406,406,406,406,406,405,405,405,406,406,406,406,406,406,406,406,406,406,407,407,407,407,408,408,408,408,408,408,408,408,408,408,408,408,407,407,407,407,407,407,406,406,406,406,406,406,406,405,405,406,406,406,406,406,406,407,407,407,407,408,408,408,408,408,408,408,408,408,408,408,408,408,408,408,408,408,408,408,408,408,408,408,408,409,409,409,409,410,410,410,411,411,411,411,412,412,412,412,412,412,412,412,412,413,413,413,412,412,412,412,412,413,413,413,413,413,413,414,414,414,415,415,415,416,416,416,416,417,417,417,417,417,417,417,416,416,416,416,416,416,416,416,417,417,417,418,418,419,420,421,421,422,423,423,423,424,424,424,424,425,425,425,426,426,427,427,427,427,427,427,427,427,427,427,427,427,427,427,427,427,427,427,427,427,427,427,427,427,427,427,427,428,428,428,428,428,427,427,427,426,426,426,425,425,425,424,424,424,424,424,424,423,423,424,424,424,424,424,424,425,425,425,425,425,425,425,426,426,426,427,428,428,428,430,430,431,431,432,434,435,435,436,436,436,436,436,436,436,435,435,434,434,434,433,432,432,432
424,423,423,423,423,423,423,423,423,423,422,422,422,422,422,422,421,421,421,420,420,420,420,419,419,419,418,418,417,416,416,415,415,0,412,411,411,409,408,408,407,407,407,406,406,406,406,406,406,406,406,406,407,407,407,408,408,409,410,412,412,413,414,415,415,416,417,418,418,419,419,420,420,420,421,421,421,421,421,421,420,420,420,420,420,419,419,419,419,419,419,420,420,420,421,421,422,423,424,424,424,424,423,422,422,422,421,421,420,420,419,419,419,419,419,419,419,419,419,418,418,418,417,417,417,416,416,416,415,414,414,414,413,413,413,412,412,412,411,411,411,411,411,410,410,410,409,409,408,408,408,408,408,407,407,407,407,408,408,408,408,408,408,408,408,408,408,408,408,408,407,407,407,406,405,405,404,403,403,402,402,401,400,400,400,399,399,399,399,399,399,398,398,398,397,397,397,396,396,396,396,396,396,396,396,395,395,395,395,395,394,394,394,394,393,393,393,392,392,392,391,391,391,391,390,390,390,390,390,389,389,389,389,389,389,389,389,389,389,389,389,389,389,389,389,389,388,388,388,388,388,388,388,388,388,388,388,388,388,388,388,388,388,389,389,389,389,389,389,389,389,389,389,389,389,389,388,388,388,388,388,388,388,388,388,388,388,388,389,389,389,389,389,390,390,390,390,391,391,391,390,390,390,390,390,391,391,392,393,394,394,396,396,397,397,397,397,397,397,397,396,396,395,395,395,394,394,394,394,394,394,394,394,394,394,395,395,395,395,395,395,395,396,396,396,396,397,397,397,398,398,398,398,399,399,399,399,399,398,398,398,398,398,398,398,398,398,398,398,398,398,398,398,398,398,398,398,398,398,398,399,399,400,401,402,402,403,404,405,405,406,407,408,408,408,409,409,409,409,410,410,410,410,410,410,410,410,409,409,409,409,409,409,409,409,409,409,409,409,409,409,410,410,410,411,412,413,413,413,414,414,414,415,415,415,415,415,416,416,416,416,416,416,416,417,417,418,418,418,418,418,419,418,418,418,418,417,417,417,416,416,415,415,415,414,414,414,413,413,413,413,412,412,412,411,411,411,410,409,409,409,408,408,407,406,406,406,406,406,405,405,405,405,405,405,406,406,406,406,406,406,405,405,405,405,405,405,405,405,405,405,406,406,406,406,407,407,407,407,408,408,408,408,408,408,408,408,408,407,407,407,407,407,407,407,407,406,406,406,406,406,406,406,405,405,406,406,406,406,406,406,407,407,407,407,408,408,408,408,408,408,408,408,408,408,408,408,408,408,408,408,408,408,408,408,408,408,408,408,409,409,409,409,410,410,411,411,411,411,412,412,412,413,413,413,413,413,413,413,413,413,413,412,412,412,412,412,412,412,412,412,412,413,413,414,414,414,415,415,416,416,416,416,417,417,417,417,417,417,417,417,417,416,416,416,416,416,416,417,417,417,418,418,419,420,421,421,422,422,423,423,423,423,423,424,424,425,425,425,426,426,426,427,427,427,427,427,427,427,427,427,427,427,427,427,427,427,427,427,427,427,427,427,427,427,428,428,428,428,428,428,428,428,428,427,427,427,426,426,425,425,425,424,424,424,424,424,424,424,424,424,424,424,424,424,425,425,425,425,425,425,425,426,426,426,427,428,428,428,430,430,431,431,432,433,434,434,435,435,435,436,436,436,436,435,435,434,434,434,433,432,432,432
424,423,423,423,423,423,423,422,422,422,422,422,422,422,421,421,421,421,421,420,420,420,419,419,419,419,418,418,417,416,416,415,413,413,412,410,410,409,407,407,407,406,406,406,406,406,406,406,406,406,406,407,407,407,408,409,410,410,411,412,412,413,414,415,415,416,417,418,418,419,419,420,420,420,421,421,421,421,421,421,420,420,420,420,420,419,419,419,419,419,419,420,420,420,421,421,422,423,424,424,424,424,423,422,422,422,421,421,420,420,419,419,419,419,419,419,419,419,419,418,418,418,417,417,417,416,415,415,414,414,414,413,412,412,412,411,411,411,411,411,411,411,411,410,410,410,409,409,408,408,408,408,408,407,407,407,407,408,408,408,408,408,408,408,408,408,408,408,408,408,407,407,407,406,405,405,405,403,403,402,402,401,400,400,400,399,399,399,399,399,399,398,398,398,397,397,397,396,396,396,396,396,396,396,396,395,395,395,395,395,395,395,395,394,393,393,393,392,392,392,392,391,391,391,390,390,390,390,390,390,389,389,389,389,389,389,389,389,389,389,389,389,389,389,389,389,388,388,388,388,388,388,388,388,388,388,388,388,388,388,388,388,388,389,389,389,389,389,389,389,389,389,389,389,389,388,388,388,388,387,387,387,387,387,387,387,387,388,388,388,389,389,389,389,390,390,390,390,390,390,390,390,390,390,390,391,391,392,393,394,394,396,396,397,397,397,398,398,397,397,397,396,395,395,395,395,395,394,394,394,394,394,394,394,395,395,395,395,395,395,395,396,396,396,396,397,397,397,398,398,398,398,398,399,399,399,399,399,398,398,398,398,398,398,398,398,398,398,398,398,398,398,398,398,398,398,398,398,398,398,399,399,400,401,402,402,403,404,405,405,406,407,408,408,408,409,409,409,409,409,409,410,410,410,410,409,409,409,409,409,409,409,409,409,409,409,409,409,409,409,409,410,410,410,411,412,413,413,413,414,414,414,415,415,415,415,415,416,416,416,416,416,416,416,417,417,417,418,418,418,418,418,418,418,418,418,417,417,416,416,416,415,414,414,414,413,413,413,412,412,412,412,411,411,411,410,410,409,409,409,408,407,407,406,406,406,405,405,405,405,405,405,405,405,405,406,406,406,406,406,406,405,405,405,405,405,405,405,405,405,405,406,406,406,406,407,407,407,407,408,408,408,408,408,408,408,408,408,407,407,407,407,407,407,407,407,406,406,406,406,405,405,405,405,405,405,405,405,405,406,406,406,406,406,407,407,407,407,407,407,407,408,408,408,407,407,407,407,407,407,407,408,408,408,408,408,408,408,408,409,409,409,409,410,410,411,411,412,412,412,413,413,414,414,414,414,414,414,413,413,413,413,412,412,412,412,412,412,412,412,412,412,413,413,414,414,414,415,416,416,416,416,416,417,417,417,417,417,417,417,417,417,416,416,416,416,416,416,416,416,417,417,417,418,419,420,420,421,422,422,422,423,423,423,423,424,425,425,425,425,426,426,426,426,426,427,427,427,427,427,427,427,427,427,427,427,427,427,427,427,427,427,428,428,428,428,428,428,428,428,429,428,428,428,428,427,427,427,426,425,425,425,424,424,424,424,424,423,423,423,423,424,424,424,424,424,425,425,425,425,425,425,426,426,426,427,427,428,428,429,430,431,431,432,432,433,433,434,434,434,434,435,435,435,435,435,435,434,434,433,433,433,432
423,423,423,423,422,422,422,422,422,422,422,422,422,421,421,421,421,420,420,420,420,420,419,419,419,418,418,418,417,416,416,416,413,413,411,410,410,408,407,407,407,406,406,406,406,406,406,406,406,406,406,407,407,407,408,409,410,410,411,412,413,413,414,415,415,416,417,418,418,419,419,420,420,420,421,421,421,421,421,421,420,420,420,419,419,419,419,419,418,418,419,419,419,420,421,421,422,423,424,424,423,423,422,422,422,421,420,420,420,419,419,419,419,419,419,419,419,419,419,419,418,418,417,417,417,416,415,415,414,414,414,413,412,412,412,411,411,411,411,411,411,411,411,410,410,410,409,409,408,408,408,408,408,407,407,407,407,407,407,407,407,408,408,408,408,408,408,408,408,408,407,407,407,406,405,405,405,403,403,402,401,401,400,400,400,400,400,400,399,399,399,399,398,398,398,397,397,396,396,396,396,396,396,396,396,396,396,396,395,395,395,395,395,395,394,393,393,393,392,392,392,391,391,391,390,390,390,390,390,390,389,389,389,389,389,389,389,389,389,389,389,389,389,389,389,389,388,388,388,388,388,388,388,388,388,388,388,388,388,388,388,388,388,388,388,388,388,389,389,389,389,389,388,388,388,388,388,387,387,387,387,387,387,387,387,387,387,387,388,388,388,389,389,389,389,390,390,390,390,390,390,391,391,391,391,391,391,392,395,395,395,396,397,397,397,398,398,398,397,397,397,396,396,396,395,395,395,394,394,394,394,394,394,394,395,395,395,395,395,395,395,396,396,396,396,397,397,397,397,398,398,398,398,399,399,399,399,399,398,398,398,398,398,398,398,398,398,398,398,398,398,398,398,398,398,398,398,398,398,398,399,399,400,401,402,402,403,404,405,405,406,407,408,408,408,409,409,409,409,409,409,410,410,410,410,409,409,409,409,409,409,409,409,409,409,409,409,409,409,409,409,410,410,410,411,412,412,412,413,414,414,414,415,415,415,415,415,415,415,416,416,416,416,416,416,416,417,417,417,417,418,418,418,418,418,417,417,417,416,416,416,414,414,414,413,412,412,412,412,412,411,411,410,410,410,409,409,408,408,409,408,407,407,406,406,406,405,405,405,405,405,405,405,405,405,406,406,406,406,406,406,405,405,405,405,405,405,405,405,405,405,405,405,405,406,406,406,406,407,407,407,407,408,408,408,408,408,407,407,407,407,407,407,407,406,406,406,406,405,405,405,405,405,405,404,404,404,404,404,405,405,405,406,406,406,407,407,407,407,407,407,407,407,407,407,407,407,407,407,407,407,408,408,408,408,408,408,408,408,409,409,409,409,410,410,411,411,412,412,413,414,414,414,414,414,414,414,414,413,413,413,413,412,412,412,412,412,412,412,412,412,412,412,413,414,414,414,415,416,416,416,416,416,417,417,417,417,417,417,417,417,417,416,416,416,416,416,416,416,416,417,417,417,418,419,420,420,421,422,422,422,422,423,423,423,424,425,425,425,425,426,426,426,426,426,427,427,427,427,427,427,427,427,427,427,427,427,427,427,427,427,427,428,428,428,428,428,428,428,428,429,428,428,428,428,427,427,427,426,425,425,425,424,424,424,424,424,423,423,423,423,423,424,424,424,424,424,424,424,425,425,425,425,426,426,426,427,428,428,428,429,430,430,431,432,432,432,433,433,433,434,434,435,435,435,435,435,434,434,433,433,433,432
422,422,422,422,422,422,422,422,422,422,422,422,421,421,421,421,421,420,420,420,420,420,419,419,419,418,418,418,417,416,416,416,413,413,411,410,410,408,407,407,407,406,406,406,406,406,406,406,406,406,406,407,407,407,408,409,410,410,411,412,413,413,414,415,415,416,417,418,418,419,419,420,420,420,421,421,421,421,421,420,419,419,419,418,418,418,418,418,418,418,418,419,419,420,421,421,422,423,423,423,423,423,422,422,422,421,420,420,420,419,419,419,419,419,419,419,419,419,419,419,418,418,418,417,417,416,416,416,414,414,414,413,412,412,411,411,411,411,411,411,410,410,410,410,410,410,409,409,408,408,408,407,407,407,407,407,406,406,407,407,407,407,407,407,407,408,408,408,408,408,407,407,407,406,405,405,404,403,403,402,401,401,400,400,400,400,400,400,400,400,400,399,399,399,398,397,397,397,396,396,396,396,396,396,396,396,396,396,396,396,396,395,395,395,394,393,393,393,392,392,392,391,391,391,390,390,390,390,390,390,389,389,389,389,389,389,389,389,389,389,389,389,389,389,389,389,389,388,388,388,388,388,388,388,388,388,388,388,388,388,388,388,388,388,388,388,388,388,388,388,388,388,388,388,388,388,388,387,387,387,387,387,387,387,387,387,387,387,388,388,388,389,389,389,389,390,390,390,390,390,390,391,391,391,391,391,391,392,395,395,395,396,397,397,397,398,398,398,397,397,397,396,396,396,395,395,395,394,394,394,394,394,394,395,395,395,395,395,395,396,396,396,396,396,396,397,397,397,397,398,398,398,398,399,399,399,399,399,399,398,398,398,398,399,398,398,398,398,398,398,398,398,398,398,398,398,398,398,398,398,399,399,400,401,402,402,403,404,405,405,406,407,408,408,408,409,409,409,409,409,409,409,409,409,409,409,409,409,409,409,409,408,408,408,408,408,408,408,409,409,409,409,410,411,411,411,412,412,413,413,414,414,414,414,414,415,415,415,415,415,415,415,415,415,416,416,416,416,416,417,417,417,417,417,418,417,417,417,416,416,416,414,414,414,413,412,412,412,412,412,411,411,410,410,410,409,409,408,408,408,407,406,406,406,405,405,405,405,405,405,405,405,405,405,405,405,405,406,406,406,406,405,405,405,405,405,405,404,404,404,404,404,404,404,405,405,405,406,406,407,407,407,407,407,408,407,407,407,407,407,407,407,407,406,406,406,406,405,405,405,405,405,405,405,404,404,404,404,404,405,405,405,406,406,406,407,407,407,407,407,407,407,407,407,407,407,407,407,407,407,407,407,408,408,408,408,408,408,408,409,409,409,409,410,410,411,411,412,412,413,414,414,414,414,415,415,414,414,414,413,413,413,412,412,412,411,411,411,411,411,412,412,412,413,413,413,414,415,416,416,416,417,417,417,417,417,417,417,417,417,417,417,417,417,417,417,416,416,417,417,417,418,418,418,419,420,420,421,422,422,422,422,423,423,423,424,424,424,425,425,425,425,425,426,426,426,426,426,426,426,426,426,426,426,426,427,427,427,427,427,428,428,428,428,428,428,429,429,429,429,429,429,429,428,428,428,427,427,427,426,426,425,424,424,424,423,423,423,423,423,423,423,423,424,424,424,424,424,424,425,425,425,425,426,426,426,427,428,428,428,429,430,430,431,432,432,432,433,433,433,434,434,434,434,435,435,434,434,434,433,433,433,432
422,422,422,422,422,422,422,422,422,422,422,422,421,421,421,421,421,420,420,420,420,420,419,419,419,418,418,418,417,416,416,416,413,413,411,410,410,408,407,407,407,406,406,406,406,406,406,406,406,406,407,407,408,408,409,410,411,411,412,413,414,414,415,416,416,416,417,418,418,418,419,420,420,420,421,421,421,421,421,420,419,419,419,418,418,418,418,418,418,418,418,419,419,420,421,422,422,423,423,423,423,423,422,421,421,420,420,420,419,419,419,419,419,419,419,419,419,419,419,419,418,418,418,417,417,416,416,416,414,413,413,412,411,411,411,410,410,410,410,410,410,410,410,410,409,409,409,408,408,408,407,407,407,406,406,406,406,406,406,406,406,406,407,407,407,408,408,408,408,408,407,407,407,406,405,405,404,403,403,402,401,401,401,401,401,401,401,401,400,400,400,399,399,399,398,397,397,397,396,396,396,396,396,396,396,396,396,396,396,396,396,395,395,395,394,394,394,393,393,393,392,392,392,391,391,391,390,390,390,390,390,390,390,389,389,389,389,389,389,389,389,389,389,389,389,389,389,388,388,388,388,388,388,388,388,388,388,388,388,388,388,388,388,388,388,388,388,388,388,388,388,388,388,388,388,388,388,387,387,387,387,387,387,387,387,387,387,387,388,388,388,388,388,389,389,390,390,390,390,390,390,391,0,391,391,392,0,394,394,395,395,396,397,397,397,398,398,398,397,397,397,396,396,396,395,395,395,395,394,394,394,394,395,395,395,395,395,395,396,396,396,396,396,396,396,397,397,397,397,398,398,398,398,399,399,399,399,399,399,398,398,398,398,399,398,398,398,398,398,398,398,398,398,398,398,398,398,398,398,398,399,399,400,401,402,402,403,404,405,405,406,407,408,408,408,409,409,409,409,409,409,409,409,409,409,409,409,409,409,409,408,408,408,408,408,408,408,408,408,409,409,409,410,410,410,411,412,412,413,413,414,414,414,414,414,415,415,415,415,415,415,415,415,415,416,416,416,416,416,417,417,417,417,417,417,417,416,416,416,415,415,414,413,413,413,412,412,411,411,411,411,410,410,410,409,408,408,407,407,407,406,405,405,405,404,404,404,404,404,404,404,404,405,405,405,405,405,406,406,406,405,405,405,405,404,404,404,404,404,404,404,404,404,404,405,405,405,406,406,407,407,407,407,407,408,407,407,407,407,407,407,407,407,406,406,406,406,405,405,405,405,404,404,404,404,404,404,404,404,404,404,405,405,405,406,406,406,406,407,407,407,407,407,407,407,407,407,407,407,407,407,407,408,408,408,408,408,408,408,409,409,409,409,410,410,411,411,412,412,413,414,414,414,415,415,415,415,415,414,414,414,413,412,412,412,411,411,411,411,411,412,412,412,413,413,413,414,415,416,416,416,417,417,417,417,418,417,417,417,417,417,417,417,417,417,417,416,416,417,417,417,418,418,418,419,420,420,421,421,422,422,422,423,423,423,424,424,424,424,424,424,425,425,425,425,425,425,425,426,426,426,426,426,426,426,427,427,427,427,428,428,428,428,429,429,429,429,429,429,430,430,430,429,429,429,428,428,428,427,426,426,425,424,424,424,423,423,423,423,423,423,423,423,424,424,424,424,424,424,424,425,425,425,426,426,426,427,427,427,428,429,429,429,430,431,431,431,432,432,432,433,433,434,434,434,435,434,434,434,433,433,433,432
422,422,422,422,422,422,422,422,422,421,421,421,421,421,421,421,420,420,420,420,419,419,419,419,419,418,418,418,417,416,416,414,414,0,411,410,410,408,407,407,407,406,406,406,406,406,406,406,406,406,407,407,408,408,409,410,411,411,412,413,414,414,415,416,416,416,417,418,418,418,419,420,420,420,421,421,421,420,420,419,418,418,418,417,417,417,417,417,417,417,418,418,418,419,420,420,421,422,422,422,422,422,421,420,420,420,419,419,419,418,418,418,418,419,419,419,419,419,419,419,418,418,418,417,417,416,416,416,414,413,413,412,411,411,410,410,410,410,410,410,410,410,410,410,409,409,409,408,408,408,407,407,407,406,406,406,406,406,406,406,406,406,407,407,407,407,407,407,408,407,407,407,407,406,405,405,404,403,403,402,401,401,401,401,401,401,401,401,400,400,400,400,400,399,399,398,398,397,397,396,396,396,396,396,396,396,396,396,396,396,396,395,395,395,395,394,394,393,393,393,392,392,392,391,391,391,391,390,390,390,390,390,390,390,390,390,390,390,390,390,390,390,389,389,389,389,389,389,389,388,388,388,388,388,388,388,388,388,388,388,388,388,388,388,388,388,388,388,388,388,388,388,388,388,388,388,387,387,387,387,387,387,387,387,387,387,387,387,387,387,388,388,388,389,389,389,389,390,390,390,391,391,0,391,391,392,0,394,394,395,395,396,396,397,397,398,398,398,397,397,397,396,396,396,395,395,395,395,395,395,395,395,395,395,395,395,395,395,396,396,396,396,396,396,396,397,397,397,397,398,398,398,398,398,398,399,399,399,399,398,398,398,398,399,399,399,398,398,398,398,398,398,398,398,398,398,398,398,398,399,399,399,400,401,402,402,403,404,405,405,406,407,408,408,408,408,409,409,409,409,409,409,409,409,409,409,409,409,409,409,408,408,408,408,408,408,408,408,408,409,409,409,410,410,410,411,412,412,412,413,413,413,414,414,414,414,414,414,414,414,414,414,415,415,415,415,415,416,416,416,416,417,417,417,417,416,416,416,415,414,414,414,413,413,412,411,411,411,410,410,410,409,409,409,408,407,407,407,406,406,405,404,404,404,404,404,404,404,404,404,404,404,405,405,405,405,405,406,406,406,405,405,405,405,404,404,404,404,404,404,404,404,404,404,404,405,405,405,406,406,406,407,407,407,407,407,407,407,407,407,407,407,407,406,406,406,406,405,405,405,404,404,404,404,404,404,404,404,404,404,404,405,405,405,405,406,406,406,407,407,407,407,407,407,407,407,407,407,407,407,407,408,408,408,408,408,408,408,408,409,409,409,409,410,410,411,412,412,412,413,414,415,415,415,416,416,415,415,415,414,414,413,412,412,412,411,411,411,411,411,411,411,412,412,413,413,414,415,416,416,416,417,417,417,417,418,418,418,418,418,418,418,418,417,417,417,417,417,418,418,418,418,419,419,419,420,420,421,421,422,422,422,423,423,423,423,424,424,424,424,424,424,425,425,425,425,425,425,426,426,426,426,426,426,426,427,427,427,427,428,428,428,428,429,429,429,430,430,430,430,430,430,429,429,429,428,428,428,427,426,426,425,424,424,424,423,423,423,423,423,423,423,423,423,423,423,424,424,424,424,424,424,425,426,426,426,427,427,427,428,428,429,429,429,430,430,431,431,432,432,432,433,433,433,434,434,434,434,434,433,433,433,432
